# .PCD v0.7 - Point Cloud Data file format
VERSION 0.7
FIELDS x y z normal_x normal_y normal_z curvature
SIZE 4 4 4 4 4 4 4
TYPE F F F F F F F
COUNT 1 1 1 1 1 1 1
WIDTH 1111
HEIGHT 1
VIEWPOINT 0 0 0 1 0 0 0
POINTS 1111
DATA ascii
0.075306527 -0.12633878 -0.99892467 0 0 0 0
0.20139624 0.80428219 -0.98802972 0 0 0 0
0.34537691 -0.79947978 -0.80436468 0 0 0 0
0.017498793 0.70019352 -0.70042187 0 0 0 0
0.36364046 -0.53174669 -0.97668481 0 0 0 0
0.23966901 0.48911822 -0.97764963 0 0 0 0
-0.47003493 0.79422241 -0.99892467 0 0 0 0
-0.40719223 0.80724823 -0.99892467 0 0 0 0
0.21146394 -0.32509428 -0.99892467 0 0 0 0
0.2206594 -0.3533937 -0.78571475 0 0 0 0
-0.24341355 0.30370733 -0.81832302 0 0 0 0
0.34521899 -0.38005185 -0.92787033 0 0 0 0
-0.70602357 0.71841305 -0.99892467 0 0 0 0
-0.44979122 0.463236 -0.73726881 0 0 0 0
-0.40657556 0.63808775 -0.99892467 0 0 0 0
-0.08041317 0.8303259 -0.99892467 0 0 0 0
-0.64622289 0.66319263 -0.71164066 0 0 0 0
-0.17470473 0.92449957 -0.99892467 0 0 0 0
0.27718917 -0.55005962 -0.99892467 0 0 0 0
0.096413895 -0.45693257 -0.75004131 0 0 0 0
-0.13296914 -0.12899867 -0.99892467 0 0 0 0
-0.57631481 0.73295808 -0.99892467 0 0 0 0
-0.29097047 0.35918477 -0.9841392 0 0 0 0
0.18388762 0.94846016 -0.87285262 0 0 0 0
0.10979228 0.76458359 -0.99892467 0 0 0 0
0.0502708 0.96236712 -0.7697944 0 0 0 0
0.16014244 -0.32528552 -0.99892467 0 0 0 0
0.10541832 -0.2941851 -0.99892467 0 0 0 0
0.11366863 -0.44950074 -0.99892467 0 0 0 0
-0.44803923 0.79513651 -0.99892467 0 0 0 0
0.076019719 -0.36896116 -0.74746042 0 0 0 0
-0.13216762 -0.61044705 -0.95863962 0 0 0 0
-0.32962865 0.81480205 -0.99892467 0 0 0 0
-0.039613154 -0.32706898 -0.99892467 0 0 0 0
-0.39217344 0.79941505 -0.99892467 0 0 0 0
0.37462601 -0.82279587 -0.81127489 0 0 0 0
-0.13799274 -0.24876571 -0.99892467 0 0 0 0
0.093071043 -0.11500707 -0.75983554 0 0 0 0
-0.43006828 0.69369036 -0.71278489 0 0 0 0
-0.38264626 0.69713366 -0.71219128 0 0 0 0
-0.58920813 0.32560027 -0.92965096 0 0 0 0
0.20780376 -0.61554199 -0.77417958 0 0 0 0
0.31498367 -0.79836226 -0.79646313 0 0 0 0
0.21585435 0.68522435 -0.94057512 0 0 0 0
-0.70275956 0.31281325 -0.96378547 0 0 0 0
0.39598465 -0.92858863 -0.81622851 0 0 0 0
0.20523034 -0.57592946 -0.99892467 0 0 0 0
-0.36465284 0.91564661 -0.83976084 0 0 0 0
0.071339019 0.7888062 -0.7217775 0 0 0 0
-0.34113488 0.90434474 -0.99892467 0 0 0 0
0.30410805 -0.59740514 -0.99892467 0 0 0 0
-0.51420611 0.33404624 -0.93362236 0 0 0 0
-0.15093069 -0.016863991 -0.79524523 0 0 0 0
-0.32116899 0.7255978 -0.71766371 0 0 0 0
0.046397999 0.96193105 -0.78082097 0 0 0 0
0.14740604 -0.48419952 -0.76250589 0 0 0 0
-0.10314701 0.3403073 -0.77167994 0 0 0 0
0.193142 -0.35635155 -0.77843702 0 0 0 0
-0.58286458 0.32631463 -0.95576191 0 0 0 0
-0.80101407 0.61814827 -0.7047863 0 0 0 0
0.19450048 0.86106658 -0.90266907 0 0 0 0
0.22438267 -0.32149649 -0.99892467 0 0 0 0
-0.14334743 0.049359802 -0.79121065 0 0 0 0
-0.14907154 -0.47154048 -0.94060469 0 0 0 0
0.26656121 0.26766986 -0.81329393 0 0 0 0
-0.50578743 0.67622572 -0.7106204 0 0 0 0
-0.038050476 0.77281845 -0.72105443 0 0 0 0
-0.15414155 0.61577308 -0.70623529 0 0 0 0
0.0076985443 -0.23698124 -0.99892467 0 0 0 0
-0.02892093 0.061830811 -0.99892467 0 0 0 0
0.36574185 -0.91573501 -0.80605555 0 0 0 0
-0.6116246 0.88783753 -0.94072026 0 0 0 0
-0.047983915 -0.12369175 -0.99892467 0 0 0 0
0.29899541 -0.68683493 -0.99892467 0 0 0 0
0.029783443 0.21086946 -0.75347614 0 0 0 0
0.16587317 0.53263581 -0.99892467 0 0 0 0
0.10015549 0.70493013 -0.99892467 0 0 0 0
0.055072144 0.57682002 -0.72324568 0 0 0 0
0.11467163 -0.34833869 -0.99892467 0 0 0 0
-0.49091169 0.33666942 -0.90037256 0 0 0 0
0.19230278 -0.60327131 -0.77051473 0 0 0 0
0.26694775 -0.52142942 -0.79255944 0 0 0 0
-0.37485263 0.44743261 -0.99892467 0 0 0 0
-0.33606642 0.69149792 -0.70926285 0 0 0 0
-0.43435058 0.47133926 -0.73561174 0 0 0 0
-0.078447454 0.75909716 -0.71875435 0 0 0 0
-0.56157649 0.64739543 -0.99892467 0 0 0 0
-0.64211756 0.63745999 -0.99892467 0 0 0 0
-0.17093629 0.19857495 -0.99892467 0 0 0 0
-0.42016655 0.54502231 -0.71651632 0 0 0 0
-0.49741906 0.66099763 -0.70639712 0 0 0 0
-0.73267698 0.54186869 -0.70738053 0 0 0 0
-0.72691303 0.87485605 -0.92652744 0 0 0 0
-0.60414499 0.83826941 -0.99892467 0 0 0 0
-0.49276197 0.66252226 -0.99892467 0 0 0 0
0.30655667 -0.66974407 -0.79827523 0 0 0 0
-0.53399962 0.78233725 -0.99892467 0 0 0 0
-0.31749856 0.79933923 -0.73672706 0 0 0 0
-0.038148712 0.73148251 -0.71030694 0 0 0 0
-0.39612237 0.71808648 -0.99892467 0 0 0 0
-0.17824985 -0.18601774 -0.80763513 0 0 0 0
-0.07653106 -0.98685586 -0.80813909 0 0 0 0
-0.1596332 -0.38475093 -0.91228592 0 0 0 0
-0.18695982 0.27520052 -0.7955417 0 0 0 0
0.18470798 -0.48506284 -0.7722193 0 0 0 0
-0.15405895 0.31343946 -0.78585964 0 0 0 0
0.024546593 0.65582269 -0.99892467 0 0 0 0
-0.7617141 0.3061744 -0.97482604 0 0 0 0
0.098775215 -0.29986557 -0.99892467 0 0 0 0
-0.74349409 0.8495928 -0.99892467 0 0 0 0
0.049752131 -0.14577495 -0.74756414 0 0 0 0
-0.23149963 0.20580558 -0.82490325 0 0 0 0
0.10455434 0.96847945 -0.79842603 0 0 0 0
0.021340081 0.22701065 -0.75177497 0 0 0 0
-0.048551109 0.016087914 -0.99892467 0 0 0 0
-0.13562848 -0.58200771 -0.93909377 0 0 0 0
-0.40152004 0.71651858 -0.99892467 0 0 0 0
0.31506404 -0.1317355 -0.9228676 0 0 0 0
-0.049872797 0.92612445 -0.7612974 0 0 0 0
-0.47712767 0.73747987 -0.72565138 0 0 0 0
-0.031514019 -0.1193194 -0.99892467 0 0 0 0
-0.33233929 0.91928512 -0.80250126 0 0 0 0
-0.61150777 0.32308909 -0.90775222 0 0 0 0
-0.053323083 0.73902673 -0.99892467 0 0 0 0
-0.1124176 -0.12116415 -0.78836954 0 0 0 0
0.26262319 0.28320652 -0.80776429 0 0 0 0
-0.16047435 0.01871817 -0.99892467 0 0 0 0
-0.096215725 0.59112281 -0.71462345 0 0 0 0
-0.0049054758 -0.17455697 -0.99892467 0 0 0 0
-0.69706523 0.31345448 -0.77074003 0 0 0 0
0.13743636 -0.58073306 -0.99892467 0 0 0 0
0.06782876 0.79837412 -0.99892467 0 0 0 0
-0.19056156 -0.12558322 -0.99892467 0 0 0 0
-0.33407977 0.4142198 -0.75396526 0 0 0 0
0.18890558 -0.63013995 -0.76878941 0 0 0 0
0.14587967 0.71533531 -0.99892467 0 0 0 0
0.18160258 -0.95402616 -0.75677812 0 0 0 0
0.1288467 0.97121477 -0.85228598 0 0 0 0
-0.34730116 0.81179762 -0.74090308 0 0 0 0
-0.10428652 -0.83955771 -0.97580045 0 0 0 0
0.16737011 0.39641124 -0.77469152 0 0 0 0
-0.52274245 0.60263973 -0.69795716 0 0 0 0
0.2287156 -0.46935651 -0.78420067 0 0 0 0
-0.36613345 0.9154799 -0.83474588 0 0 0 0
0.06070954 -0.0019178898 -0.75491327 0 0 0 0
-0.52202165 0.88883996 -0.99892467 0 0 0 0
0.099458933 0.70803159 -0.99892467 0 0 0 0
-0.10932728 -0.65985471 -0.80420393 0 0 0 0
-0.73544759 0.54816979 -0.70562041 0 0 0 0
-0.34589252 0.85280544 -0.99892467 0 0 0 0
-0.14276876 -0.52333313 -0.96796179 0 0 0 0
-0.23251297 0.90696633 -0.99892467 0 0 0 0
-0.13947456 -0.55040288 -0.94250107 0 0 0 0
-0.25026855 0.36003757 -0.80041438 0 0 0 0
-0.12800808 0.066807285 -0.99892467 0 0 0 0
-0.11961311 -0.41676387 -0.79938984 0 0 0 0
-0.17079662 -0.20627747 -0.80630684 0 0 0 0
-0.5619002 0.47589314 -0.73033339 0 0 0 0
0.23423855 -0.66355073 -0.99892467 0 0 0 0
-0.1756403 -0.10268401 -0.99892467 0 0 0 0
0.20811099 -0.48241365 -0.778413 0 0 0 0
-0.02025252 0.55293083 -0.72717983 0 0 0 0
-0.59421086 0.71927792 -0.724594 0 0 0 0
0.31929684 -0.16659108 -0.9062801 0 0 0 0
-0.16360936 -0.35207719 -0.92020977 0 0 0 0
0.16040459 -0.67018896 -0.99892467 0 0 0 0
-0.75446796 0.53433251 -0.70868444 0 0 0 0
-0.098858505 0.023989229 -0.78032923 0 0 0 0
0.054826625 0.96288007 -0.80636024 0 0 0 0
0.20972884 -0.66865021 -0.99892467 0 0 0 0
-0.11208569 0.58002818 -0.71706039 0 0 0 0
-0.075458311 0.74309397 -0.99892467 0 0 0 0
0.17597927 -0.67484015 -0.99892467 0 0 0 0
0.0067112702 -0.1238104 -0.99892467 0 0 0 0
-0.6544987 0.64957619 -0.99892467 0 0 0 0
0.10858811 -0.24793896 -0.99892467 0 0 0 0
0.21967492 -0.88105702 -0.76899606 0 0 0 0
0.22048578 0.64708596 -0.93530118 0 0 0 0
0.11309152 -0.26592773 -0.99892467 0 0 0 0
-0.13580038 -0.58059525 -0.99443889 0 0 0 0
-0.11858711 0.15941308 -0.78131783 0 0 0 0
-0.70601863 0.80470514 -0.99892467 0 0 0 0
-0.65290761 0.54514468 -0.70905691 0 0 0 0
-0.073757961 -0.42174849 -0.99892467 0 0 0 0
-0.19085379 0.26786309 -0.79691577 0 0 0 0
-0.78249824 0.60615087 -0.70108455 0 0 0 0
-0.11187085 -0.77723414 -0.98023152 0 0 0 0
-0.42631739 0.71203959 -0.99892467 0 0 0 0
0.25479901 -0.59029794 -0.7872386 0 0 0 0
0.22040297 0.62118304 -0.99892467 0 0 0 0
0.15831405 0.89258957 -0.99892467 0 0 0 0
0.049082436 0.46386498 -0.75302148 0 0 0 0
0.15855014 -0.77819073 -0.75624412 0 0 0 0
0.2111564 -0.95128298 -0.76458085 0 0 0 0
-0.091119707 -0.13357608 -0.99892467 0 0 0 0
0.35553318 -0.5360508 -0.99892467 0 0 0 0
0.36546275 -0.54675275 -0.98121011 0 0 0 0
0.064836517 0.91387451 -0.99892467 0 0 0 0
-0.084427096 0.7584247 -0.71876723 0 0 0 0
0.1093288 -0.41946149 -0.7545827 0 0 0 0
0.018514112 0.18350674 -0.7496798 0 0 0 0
0.10651843 -0.010815096 -0.76659745 0 0 0 0
-0.39077502 0.442211 -0.74473 0 0 0 0
0.27719769 -0.79780209 -0.99892467 0 0 0 0
-0.49313167 0.33641943 -0.97412342 0 0 0 0
-0.52545249 0.58286673 -0.99892467 0 0 0 0
-0.16504477 0.22292377 -0.79153699 0 0 0 0
0.083563164 0.79129678 -0.99892467 0 0 0 0
-0.3889339 0.87200749 -0.75786978 0 0 0 0
0.13510598 -0.28684539 -0.76545095 0 0 0 0
-0.10424263 0.16118316 -0.99892467 0 0 0 0
-0.8110587 0.57578975 -0.69588006 0 0 0 0
-0.53197771 0.84407163 -0.99892467 0 0 0 0
0.11599863 0.62622356 -0.71208316 0 0 0 0
0.24130331 -0.45941684 -0.99892467 0 0 0 0
0.2871896 -0.52054143 -0.99892467 0 0 0 0
-0.54109907 0.62573588 -0.69859791 0 0 0 0
0.19774812 0.83432317 -0.87124979 0 0 0 0
-0.096698456 -0.065718457 -0.99892467 0 0 0 0
-0.97378623 0.8058002 -0.99438596 0 0 0 0
-0.48189208 0.69173896 -0.71390474 0 0 0 0
-0.76841092 0.75591159 -0.99892467 0 0 0 0
-0.42170003 0.59294009 -0.99892467 0 0 0 0
0.11256285 0.59814841 -0.71942186 0 0 0 0
-0.72154713 0.74169505 -0.99892467 0 0 0 0
-0.14036368 -0.22223003 -0.99892467 0 0 0 0
-0.1122661 -0.23024565 -0.99892467 0 0 0 0
0.27644616 0.18627025 -0.83560419 0 0 0 0
0.28585297 -0.57883203 -0.7957052 0 0 0 0
0.23538974 0.52435666 -0.98444647 0 0 0 0
0.13787338 -0.23005682 -0.99892467 0 0 0 0
-0.14838602 0.79748726 -0.99892467 0 0 0 0
0.35883474 -0.88016486 -0.99892467 0 0 0 0
0.18758719 -0.56194246 -0.77057272 0 0 0 0
-0.19222562 0.71392602 -0.71057916 0 0 0 0
-0.35002872 0.46292463 -0.99892467 0 0 0 0
0.29823211 0.0068701031 -0.86985368 0 0 0 0
-0.7121141 0.59075058 -0.69506836 0 0 0 0
-0.27775744 0.39367282 -0.7612136 0 0 0 0
0.31836212 -0.46949506 -0.99892467 0 0 0 0
-0.74763638 0.72180158 -0.99892467 0 0 0 0
0.13913719 -0.3046189 -0.76594907 0 0 0 0
-0.34611714 0.49314681 -0.99892467 0 0 0 0
-0.70234489 0.78949976 -0.99892467 0 0 0 0
0.38120991 -0.9117561 -0.81021875 0 0 0 0
0.27998385 -0.45495769 -0.99892467 0 0 0 0
0.27075642 -0.68211818 -0.7885409 0 0 0 0
0.32223922 -0.43531641 -0.99892467 0 0 0 0
-0.62508154 0.88632226 -0.97423095 0 0 0 0
-0.11149942 -0.034794167 -0.99892467 0 0 0 0
0.13728744 -0.24706027 -0.76726174 0 0 0 0
-0.090543456 0.13629715 -0.99892467 0 0 0 0
-0.2929658 0.35896006 -0.943483 0 0 0 0
0.22387399 -0.74263066 -0.99892467 0 0 0 0
0.20042725 0.81226158 -0.87607974 0 0 0 0
-0.15604198 -0.16824366 -0.80126286 0 0 0 0
0.18420254 -0.37082472 -0.77565122 0 0 0 0
0.39018726 -0.86471641 -0.99892467 0 0 0 0
-0.3298094 0.84630883 -0.74932945 0 0 0 0
-0.48833975 0.70546311 -0.71767658 0 0 0 0
0.14266829 -0.89036524 -0.7485975 0 0 0 0
-0.22141814 0.22869177 -0.99892467 0 0 0 0
-0.40963596 0.83718163 -0.74946237 0 0 0 0
-0.23806518 0.89542383 -0.99892467 0 0 0 0
-0.4854582 0.62042427 -0.69546926 0 0 0 0
0.25646082 -0.30855924 -0.99892467 0 0 0 0
-0.37889177 0.81945407 -0.74388635 0 0 0 0
0.071030423 -0.20326518 -0.99892467 0 0 0 0
0.31126934 -0.7843163 -0.79593146 0 0 0 0
-0.48034489 0.52432156 -0.99892467 0 0 0 0
-0.18501289 -0.17619534 -0.92706162 0 0 0 0
-0.30466217 0.74301445 -0.7216751 0 0 0 0
0.16524255 -0.27132928 -0.77380431 0 0 0 0
0.14905909 -0.26056632 -0.99892467 0 0 0 0
0.061574683 -0.50719541 -0.99892467 0 0 0 0
0.25433937 -0.63381076 -0.78576112 0 0 0 0
-0.58885956 0.83309323 -0.99892467 0 0 0 0
0.31604537 -0.65069807 -0.80134708 0 0 0 0
-0.11022466 -0.33461854 -0.7943899 0 0 0 0
-0.53322589 0.55414063 -0.99892467 0 0 0 0
0.17068931 -0.72407401 -0.99892467 0 0 0 0
0.00031823158 0.8963564 -0.99892467 0 0 0 0
0.19920269 -0.42795542 -0.99892467 0 0 0 0
-0.56719923 0.32807869 -0.93142086 0 0 0 0
-0.092593171 0.83035451 -0.99892467 0 0 0 0
0.11374924 -0.36000577 -0.99892467 0 0 0 0
-0.18016176 0.60648125 -0.70787007 0 0 0 0
0.057284672 0.15004873 -0.75875992 0 0 0 0
0.30260253 -0.64692891 -0.99892467 0 0 0 0
-0.15497325 0.27903017 -0.7871626 0 0 0 0
-0.18881683 0.32980847 -0.78099495 0 0 0 0
-0.4403007 0.79204303 -0.99892467 0 0 0 0
0.12509273 -0.57084602 -0.75397623 0 0 0 0
0.075779811 0.64268565 -0.99892467 0 0 0 0
0.12614253 -0.24601175 -0.99892467 0 0 0 0
-0.46126342 0.50541288 -0.99892467 0 0 0 0
-0.16935766 -0.30484101 -0.92009103 0 0 0 0
-0.74592084 0.54583073 -0.70590675 0 0 0 0
-0.52029318 0.83458114 -0.99892467 0 0 0 0
-0.19609284 0.31186423 -0.78552341 0 0 0 0
-0.012443997 0.89552057 -0.75216264 0 0 0 0
-0.59539008 0.88966554 -0.92966461 0 0 0 0
-0.16056764 -0.37707219 -0.94733131 0 0 0 0
0.2545386 0.3595798 -0.7872445 0 0 0 0
0.030042825 -0.519678 -0.99892467 0 0 0 0
-0.25712469 0.36299613 -0.7754004 0 0 0 0
0.30813086 -0.074643008 -0.89629 0 0 0 0
-0.023705903 0.82169896 -0.99892467 0 0 0 0
0.21912314 -0.66302741 -0.99892467 0 0 0 0
0.14953034 -0.69328618 -0.75653768 0 0 0 0
-0.39991117 0.43882626 -0.74533641 0 0 0 0
0.025897847 0.260847 -0.75402069 0 0 0 0
-0.20798078 0.044248801 -0.80831593 0 0 0 0
-0.6517089 0.82442927 -0.99892467 0 0 0 0
0.28547925 -0.79627979 -0.99892467 0 0 0 0
-0.11034542 -0.11894052 -0.99892467 0 0 0 0
-0.058606461 0.69579279 -0.99892467 0 0 0 0
0.14674029 -0.182363 -0.77174848 0 0 0 0
-0.077296577 -0.50485539 -0.99892467 0 0 0 0
0.095578343 -0.52929068 -0.99892467 0 0 0 0
-0.1021506 -0.29046273 -0.99892467 0 0 0 0
0.120721 -0.32355505 -0.76054943 0 0 0 0
-0.49961349 0.49940944 -0.72608215 0 0 0 0
0.24217401 -0.67251652 -0.99892467 0 0 0 0
0.090596132 -0.07003969 -0.7605921 0 0 0 0
-0.10216283 -0.37592456 -0.99892467 0 0 0 0
0.15581436 -0.76578534 -0.75591677 0 0 0 0
0.0053588534 -0.18498352 -0.99892467 0 0 0 0
0.083156116 -0.28382877 -0.75197977 0 0 0 0
0.30446383 -0.044446241 -0.89192259 0 0 0 0
-0.11772269 0.22473434 -0.77907282 0 0 0 0
-0.063054033 0.75025231 -0.71597064 0 0 0 0
-0.48568666 0.8372131 -0.99892467 0 0 0 0
-0.40732998 0.66104835 -0.70358139 0 0 0 0
-0.45313209 0.72390538 -0.72136742 0 0 0 0
-0.70509619 0.31255013 -0.95732224 0 0 0 0
-0.15640619 -0.41126865 -0.92513841 0 0 0 0
-0.58287436 0.61789298 -0.69786996 0 0 0 0
-0.48867375 0.73339814 -0.99892467 0 0 0 0
-0.41185391 0.91033179 -0.88739669 0 0 0 0
-0.12088201 -0.45635852 -0.99892467 0 0 0 0
0.026068646 0.24692322 -0.75363088 0 0 0 0
0.043476384 -0.56199998 -0.99892467 0 0 0 0
-0.23357439 0.34380701 -0.77585292 0 0 0 0
-0.24102847 0.3346619 -0.77804124 0 0 0 0
0.16315411 -0.33936739 -0.7711364 0 0 0 0
-0.507819 0.89952606 -0.83921665 0 0 0 0
0.24686323 0.42987618 -0.80346286 0 0 0 0
0.1907362 0.89206409 -0.94647574 0 0 0 0
-0.032385889 0.74057579 -0.71249092 0 0 0 0
0.20071419 -0.36318541 -0.78020114 0 0 0 0
0.063796259 0.96389008 -0.82496148 0 0 0 0
0.085763745 0.96636361 -0.79427701 0 0 0 0
0.14549489 -0.68767434 -0.75565898 0 0 0 0
0.092404678 0.89062285 -0.99892467 0 0 0 0
-0.034322247 -0.081540354 -0.99892467 0 0 0 0
-0.53667229 0.74982923 -0.73073298 0 0 0 0
-0.58926445 0.59833509 -0.99892467 0 0 0 0
-0.66110516 0.72247112 -0.72752512 0 0 0 0
-0.49955243 0.90045691 -0.90305555 0 0 0 0
-0.40252602 0.70949781 -0.71603119 0 0 0 0
-0.14024006 -0.32495743 -0.99892467 0 0 0 0
-0.5816825 0.61967444 -0.69829583 0 0 0 0
-0.51197749 0.60497546 -0.99892467 0 0 0 0
0.15551801 -0.82946444 -0.75385278 0 0 0 0
0.039805308 -0.34250098 -0.99892467 0 0 0 0
-0.70566428 0.66128427 -0.71301091 0 0 0 0
-0.17775056 0.18772124 -0.99892467 0 0 0 0
-0.025213107 0.72809261 -0.70901906 0 0 0 0
-0.093414553 -0.84400493 -0.8057214 0 0 0 0
0.14756261 -0.22274628 -0.77070332 0 0 0 0
0.17545226 0.97646254 -0.84830308 0 0 0 0
-0.86354077 0.60049552 -0.70215863 0 0 0 0
0.30725515 -0.78824747 -0.99892467 0 0 0 0
-0.15823753 -0.39621976 -0.96943069 0 0 0 0
-0.42405537 0.34419808 -0.7731691 0 0 0 0
0.17963198 -0.62811011 -0.99892467 0 0 0 0
-0.57950962 0.89145368 -0.88557065 0 0 0 0
-0.49385399 0.66074824 -0.99892467 0 0 0 0
-0.12345805 -0.34686166 -0.7982381 0 0 0 0
0.17619517 -0.87638402 -0.7577883 0 0 0 0
-0.47855097 0.89866209 -0.99892467 0 0 0 0
-0.19660576 -0.080931999 -0.86036325 0 0 0 0
0.28034708 -0.79344904 -0.99892467 0 0 0 0
0.34660205 -0.61698586 -0.99892467 0 0 0 0
-0.38917521 0.83005637 -0.74696672 0 0 0 0
-0.33953536 0.51245564 -0.99892467 0 0 0 0
-0.26018155 0.36265188 -0.86843282 0 0 0 0
-0.60845047 0.73648727 -0.99892467 0 0 0 0
-0.83329093 0.57644409 -0.69499701 0 0 0 0
0.2600517 -0.94535089 -0.79515213 0 0 0 0
-0.080198854 0.88987428 -0.75282174 0 0 0 0
-0.22654946 0.16512796 -0.81902891 0 0 0 0
0.070764557 0.83785462 -0.99892467 0 0 0 0
-0.468016 0.85751277 -0.99892467 0 0 0 0
-0.37601081 0.34960839 -0.92674637 0 0 0 0
0.33581471 -0.58608246 -0.99892467 0 0 0 0
0.1030076 -0.47663015 -0.99892467 0 0 0 0
-0.053680014 0.55803925 -0.72475785 0 0 0 0
-0.14957801 -0.088719308 -0.7971108 0 0 0 0
-0.14276503 0.21187894 -0.78603637 0 0 0 0
0.038925309 -0.11253939 -0.99892467 0 0 0 0
-0.15849638 0.083702423 -0.99892467 0 0 0 0
-0.092425585 -0.26422128 -0.99892467 0 0 0 0
-0.23409405 0.91431183 -0.99892467 0 0 0 0
0.084161513 -0.14490558 -0.7565763 0 0 0 0
0.29201135 0.058095921 -0.89424866 0 0 0 0
-0.13057129 0.045819782 -0.99892467 0 0 0 0
-0.55092651 0.71660239 -0.72253895 0 0 0 0
-0.11666977 -0.69319004 -0.80715919 0 0 0 0
-0.50870591 0.63171375 -0.69913542 0 0 0 0
0.20691395 0.75884563 -0.90306675 0 0 0 0
-0.012106281 -0.5225088 -0.99892467 0 0 0 0
-0.18997298 0.66016096 -0.69652522 0 0 0 0
-0.13996597 -0.54636472 -0.94092381 0 0 0 0
-0.0099752219 0.93309468 -0.99892467 0 0 0 0
-0.44482061 0.60663694 -0.99892467 0 0 0 0
-0.56892532 0.67607021 -0.99892467 0 0 0 0
-0.50737149 0.89957649 -0.85386658 0 0 0 0
-0.13575298 -0.58098477 -0.96003914 0 0 0 0
0.1295092 -0.47283015 -0.99892467 0 0 0 0
0.25515798 -0.46379855 -0.79127878 0 0 0 0
-0.69367516 0.87859863 -0.98649335 0 0 0 0
0.040013514 -0.38995528 -0.99892467 0 0 0 0
0.12833224 -0.96159363 -0.76781589 0 0 0 0
0.071910091 0.40930045 -0.76822585 0 0 0 0
0.21507981 0.69160235 -0.91282904 0 0 0 0
-0.23250951 0.21410418 -0.83791763 0 0 0 0
-0.10061757 -0.093696184 -0.78442675 0 0 0 0
-0.14770405 0.21816228 -0.99892467 0 0 0 0
-0.2055563 0.28499681 -0.99892467 0 0 0 0
-0.062322363 0.85485482 -0.74315256 0 0 0 0
-0.46314055 0.64911282 -0.99892467 0 0 0 0
0.15360254 -0.66171217 -0.99892467 0 0 0 0
-0.0080110999 0.49008664 -0.74424297 0 0 0 0
-0.098819554 -0.88448209 -0.99860799 0 0 0 0
0.060053453 -0.086290747 -0.75210977 0 0 0 0
-0.84770691 0.61880744 -0.70642394 0 0 0 0
0.15077057 0.95435536 -0.99892467 0 0 0 0
0.15427282 0.71196777 -0.99892467 0 0 0 0
0.089310221 -0.20934695 -0.99892467 0 0 0 0
0.0052763992 0.88349688 -0.74847907 0 0 0 0
0.19986758 -0.38502747 -0.77929866 0 0 0 0
0.078550942 -0.2870566 -0.75067657 0 0 0 0
0.12121954 0.6163435 -0.71487093 0 0 0 0
-0.075423501 -0.40740356 -0.99892467 0 0 0 0
-0.53800064 0.58534288 -0.99892467 0 0 0 0
0.0089858444 0.56533116 -0.724823 0 0 0 0
0.045410663 0.72481167 -0.99892467 0 0 0 0
-0.25756049 0.92770523 -0.77199686 0 0 0 0
0.30642825 -0.62375653 -0.79967636 0 0 0 0
-0.1051975 0.80943155 -0.73268527 0 0 0 0
0.13956441 0.66637123 -0.70218402 0 0 0 0
-0.065120898 -0.49970114 -0.99892467 0 0 0 0
0.099351332 -0.38274947 -0.75312263 0 0 0 0
0.010127042 -0.31383365 -0.99892467 0 0 0 0
0.38278648 -0.89044404 -0.99892467 0 0 0 0
0.31767759 -0.73601097 -0.79911178 0 0 0 0
-0.022694523 -0.15114033 -0.99892467 0 0 0 0
-0.31373444 0.74768567 -0.72317487 0 0 0 0
-0.18523243 0.90578693 -0.99892467 0 0 0 0
-0.39495713 0.91153866 -0.99892467 0 0 0 0
0.11572262 -0.60237271 -0.99892467 0 0 0 0
0.20214847 0.57148707 -0.99892467 0 0 0 0
0.1481954 -0.26878262 -0.99892467 0 0 0 0
-0.43746224 0.64850813 -0.70126611 0 0 0 0
-0.33286685 0.40303165 -0.75697213 0 0 0 0
-0.46596596 0.70962542 -0.7180565 0 0 0 0
-0.48335707 0.80927825 -0.74452025 0 0 0 0
0.10483529 -0.24784926 -0.75876313 0 0 0 0
0.057170704 0.7099095 -0.70170307 0 0 0 0
0.19639193 -0.62835503 -0.77079993 0 0 0 0
-0.42177242 0.75425929 -0.72827709 0 0 0 0
0.07454744 0.86989886 -0.99892467 0 0 0 0
-0.89809078 0.81362581 -0.99892467 0 0 0 0
0.19780405 -0.42977309 -0.99892467 0 0 0 0
-0.18979712 0.15530068 -0.80011672 0 0 0 0
0.24808253 -0.85654438 -0.77717865 0 0 0 0
-0.60013115 0.88913172 -0.8632952 0 0 0 0
0.25674304 -0.3312453 -0.99892467 0 0 0 0
-0.35600984 0.41970423 -0.75181043 0 0 0 0
-0.39746585 0.91195184 -0.85807025 0 0 0 0
-0.10331713 -0.18812005 -0.78805214 0 0 0 0
0.30945519 -0.085548297 -0.89160401 0 0 0 0
-0.72509038 0.81266809 -0.99892467 0 0 0 0
-0.44861984 0.57963115 -0.99892467 0 0 0 0
-0.79041576 0.79163027 -0.99892467 0 0 0 0
-0.61095011 0.52877587 -0.71473843 0 0 0 0
0.31179258 -0.41267437 -0.99892467 0 0 0 0
0.31208709 -0.6036613 -0.99892467 0 0 0 0
-0.58539355 0.67043877 -0.71161509 0 0 0 0
-0.22260125 0.13675101 -0.80929136 0 0 0 0
0.023790754 -0.26233378 -0.99892467 0 0 0 0
-0.11529472 -0.6075958 -0.80415392 0 0 0 0
-0.64615446 0.6508038 -0.99892467 0 0 0 0
-0.3300494 0.78907073 -0.73445058 0 0 0 0
-0.00068595976 0.8674165 -0.74448413 0 0 0 0
-0.49239606 0.82060945 -0.99892467 0 0 0 0
-0.18311624 0.20535533 -0.99892467 0 0 0 0
-0.58470654 0.7171641 -0.72374582 0 0 0 0
-0.057974298 0.60209811 -0.71293199 0 0 0 0
-0.12717344 0.02175325 -0.78782272 0 0 0 0
-0.29939574 0.66910607 -0.99892467 0 0 0 0
-0.45490706 0.90548396 -0.9710108 0 0 0 0
-0.15257052 0.18587694 -0.99892467 0 0 0 0
-0.29048246 0.35923973 -0.79104477 0 0 0 0
-0.36656865 0.35067165 -0.79064292 0 0 0 0
-0.31229171 0.47038254 -0.73976058 0 0 0 0
-0.50000286 0.46637419 -0.73483396 0 0 0 0
0.39314234 -0.7746852 -0.98378521 0 0 0 0
0.10432775 0.93630058 -0.99892467 0 0 0 0
-0.15645252 -0.41088787 -0.93303615 0 0 0 0
-0.33401293 0.71790445 -0.71606618 0 0 0 0
-0.0074214535 0.34856537 -0.74805683 0 0 0 0
0.18203181 0.33340597 -0.79187471 0 0 0 0
0.06438899 0.75168389 -0.71234101 0 0 0 0
-0.64961958 0.83468294 -0.99892467 0 0 0 0
-0.12717989 -0.25910851 -0.79650259 0 0 0 0
-0.4279345 0.90852106 -0.90203702 0 0 0 0
-0.099624828 0.80492693 -0.73133874 0 0 0 0
-0.053506792 0.41083869 -0.76381558 0 0 0 0
-0.13702904 -0.2481517 -0.79874659 0 0 0 0
-0.12777345 -0.34584361 -0.99892467 0 0 0 0
0.092091382 -0.34121966 -0.75252253 0 0 0 0
-0.76669973 0.61659586 -0.70330501 0 0 0 0
-0.46767315 0.47948468 -0.73238742 0 0 0 0
-0.12585758 -0.44400465 -0.80186886 0 0 0 0
0.18964078 -0.61116147 -0.99892467 0 0 0 0
-0.45724481 0.34046063 -0.97646129 0 0 0 0
0.16452718 -0.67028046 -0.7611714 0 0 0 0
0.20438071 0.779706 -0.94851911 0 0 0 0
-0.17603551 -0.24996626 -0.93633664 0 0 0 0
-0.88484472 0.85707289 -0.97736442 0 0 0 0
0.14815466 -0.32258052 -0.76774341 0 0 0 0
0.20051524 0.62687296 -0.99892467 0 0 0 0
0.032308254 0.66843468 -0.69821399 0 0 0 0
-0.032044992 -0.3438566 -0.99892467 0 0 0 0
0.01036858 0.78591841 -0.99892467 0 0 0 0
-0.93911338 0.5615592 -0.6955691 0 0 0 0
0.00017462796 0.93672729 -0.76248342 0 0 0 0
0.38611868 -0.71684772 -0.99221778 0 0 0 0
-0.40135214 0.3467547 -0.97943866 0 0 0 0
-0.31356499 0.86242956 -0.753012 0 0 0 0
0.23836158 -0.76028001 -0.99892467 0 0 0 0
-0.36235675 0.35114595 -0.77076113 0 0 0 0
-0.16161168 0.69531685 -0.70477796 0 0 0 0
0.29735759 0.014071563 -0.85410273 0 0 0 0
0.18578464 0.93283874 -0.95923495 0 0 0 0
0.21724546 -0.65223283 -0.77550036 0 0 0 0
-0.23727986 0.92998886 -0.78278071 0 0 0 0
-0.14039908 -0.28689447 -0.80082732 0 0 0 0
0.22606128 -0.94052517 -0.76880842 0 0 0 0
-0.14663573 -0.49155661 -0.93068194 0 0 0 0
-0.12298594 -0.62698662 -0.80676973 0 0 0 0
-0.031535618 0.70165324 -0.99892467 0 0 0 0
0.17644842 -0.59695315 -0.99892467 0 0 0 0
0.23331107 0.54147387 -0.97983509 0 0 0 0
-0.10273777 0.91892856 -0.76108593 0 0 0 0
0.11301877 0.5646987 -0.72831059 0 0 0 0
-0.69680876 0.57752097 -0.69906658 0 0 0 0
0.093071908 0.69719762 -0.99892467 0 0 0 0
-0.71486539 0.31145 -0.9586342 0 0 0 0
-0.16927446 0.11520021 -0.79597455 0 0 0 0
-0.051170141 0.82523829 -0.73509973 0 0 0 0
0.00765954 0.87063992 -0.74506038 0 0 0 0
-0.70218492 0.68350506 -0.99892467 0 0 0 0
-0.17249534 -0.044965155 -0.80176795 0 0 0 0
0.19465682 0.35025054 -0.78780872 0 0 0 0
0.34361872 -0.81158429 -0.80352795 0 0 0 0
0.14301439 -0.62715292 -0.75689936 0 0 0 0
-0.17522082 0.70661724 -0.70814431 0 0 0 0
-0.077078871 0.0036712261 -0.99892467 0 0 0 0
-0.34359574 0.85862404 -0.75296527 0 0 0 0
0.17592554 -0.83989465 -0.7588563 0 0 0 0
-0.51521188 0.89869362 -0.92577696 0 0 0 0
-0.13160254 -0.29857653 -0.79888171 0 0 0 0
0.36928979 -0.57826698 -0.96964896 0 0 0 0
0.15499362 -0.45746017 -0.76532137 0 0 0 0
-0.36339653 0.81910956 -0.99892467 0 0 0 0
0.34661773 -0.60777098 -0.99892467 0 0 0 0
0.16604623 -0.44919434 -0.76846528 0 0 0 0
-0.46433991 0.89931804 -0.99892467 0 0 0 0
-0.33951414 0.35371825 -0.83937979 0 0 0 0
-0.50224 0.33539373 -0.77193546 0 0 0 0
-0.20635703 0.011253845 -0.80890971 0 0 0 0
-0.028725721 -0.43998665 -0.99892467 0 0 0 0
0.051568184 0.53707004 -0.73367953 0 0 0 0
-0.28303686 0.41658106 -0.99892467 0 0 0 0
0.0048619779 -0.3294858 -0.99892467 0 0 0 0
0.016247606 0.63902211 -0.7055046 0 0 0 0
0.27349168 0.21059947 -0.82856953 0 0 0 0
-0.38274983 0.91360891 -0.99158239 0 0 0 0
0.18779658 -0.85590291 -0.76145667 0 0 0 0
-0.35223916 0.39616793 -0.7581749 0 0 0 0
0.31470358 -0.12876731 -0.87727046 0 0 0 0
-0.12839234 0.91450042 -0.99892467 0 0 0 0
-0.053747162 -0.40613183 -0.99892467 0 0 0 0
-0.65427691 0.74373835 -0.99892467 0 0 0 0
-0.18184823 -0.2022008 -0.91114199 0 0 0 0
-0.019549331 0.44510591 -0.75580812 0 0 0 0
-0.12523513 -0.66741425 -0.9798888 0 0 0 0
0.36575225 -0.54913652 -0.96181601 0 0 0 0
0.20949307 -0.35173219 -0.7828508 0 0 0 0
-0.67027932 0.31647086 -0.98287112 0 0 0 0
-0.15144119 0.091473706 -0.79203165 0 0 0 0
0.11639667 0.96981287 -0.87838399 0 0 0 0
-0.36367181 0.50699002 -0.72840905 0 0 0 0
-0.86352241 0.85947382 -0.97146428 0 0 0 0
0.34212473 -0.35457155 -0.96191317 0 0 0 0
0.011793246 0.29779902 -0.75149041 0 0 0 0
-0.032807212 0.78864652 -0.99892467 0 0 0 0
0.35339296 -0.44736177 -0.99731344 0 0 0 0
-0.28062177 0.36035013 -0.93452883 0 0 0 0
-0.22481881 0.85651845 -0.99892467 0 0 0 0
-0.12045726 -0.33099073 -0.79696089 0 0 0 0
-0.33931458 0.61560762 -0.99892467 0 0 0 0
-0.14265572 -0.02114143 -0.79320765 0 0 0 0
-0.048978183 -0.41388574 -0.99892467 0 0 0 0
-0.10932671 0.77331316 -0.72342134 0 0 0 0
-0.5485211 0.47841635 -0.73009092 0 0 0 0
0.15660736 -0.3225005 -0.76995307 0 0 0 0
-0.094831884 -0.25400364 -0.99892467 0 0 0 0
0.37110996 -0.5932557 -0.99883956 0 0 0 0
-0.49483594 0.74522877 -0.72822273 0 0 0 0
0.15633081 0.75166225 -0.99892467 0 0 0 0
0.012817396 0.21853741 -0.74928516 0 0 0 0
0.2201754 -0.43051973 -0.99892467 0 0 0 0
-0.18644986 -0.16438723 -0.88938177 0 0 0 0
-0.06884367 -0.35836971 -0.99892467 0 0 0 0
-0.4375079 0.69082862 -0.71227425 0 0 0 0
-0.12543668 -0.48819971 -0.99892467 0 0 0 0
0.21017778 0.73196906 -0.95160955 0 0 0 0
-0.26784655 0.3982521 -0.760315 0 0 0 0
-0.37450764 0.71737158 -0.71719921 0 0 0 0
0.16869278 -0.54955363 -0.76602542 0 0 0 0
0.14546934 0.37275556 -0.78026855 0 0 0 0
-0.16152509 -0.22476107 -0.80444688 0 0 0 0
-0.39811808 0.83441031 -0.99892467 0 0 0 0
-0.13890038 -0.27762425 -0.99892467 0 0 0 0
-0.094296634 -0.32482371 -0.78991085 0 0 0 0
0.31658524 -0.71119821 -0.79960066 0 0 0 0
-0.49114782 0.53085184 -0.71801066 0 0 0 0
-0.20290646 0.053049743 -0.99892467 0 0 0 0
-0.20026499 -0.050862506 -0.88211244 0 0 0 0
-0.37940288 0.91398573 -0.94191259 0 0 0 0
-0.41677564 0.8103776 -0.99892467 0 0 0 0
0.11071628 0.92369825 -0.99892467 0 0 0 0
-0.18982394 0.024680953 -0.99892467 0 0 0 0
0.12412088 -0.28523299 -0.76263279 0 0 0 0
0.21393882 -0.72023487 -0.77251542 0 0 0 0
-0.010394393 0.64615601 -0.70276183 0 0 0 0
-0.16364354 -0.089671291 -0.99892467 0 0 0 0
0.27656987 -0.79225022 -0.99892467 0 0 0 0
-0.12695909 -0.14131618 -0.99892467 0 0 0 0
-0.22155538 0.12408958 -0.86270207 0 0 0 0
-0.10882898 -0.52299589 -0.79984456 0 0 0 0
0.35236821 -0.43892324 -0.9383989 0 0 0 0
-0.47920597 0.61735606 -0.6954422 0 0 0 0
0.20303497 -0.30712125 -0.78255618 0 0 0 0
-0.31496626 0.69164139 -0.7086376 0 0 0 0
-0.031429034 0.56788552 -0.72285569 0 0 0 0
0.35606173 -0.46933815 -0.93975395 0 0 0 0
-0.15404992 0.26306906 -0.78741366 0 0 0 0
0.34651801 -0.80503446 -0.80448931 0 0 0 0
-0.75343138 0.30710712 -0.77631265 0 0 0 0
0.13869134 0.97232324 -0.83410162 0 0 0 0
-0.064810276 -0.26229459 -0.99892467 0 0 0 0
0.16011988 -0.50769508 -0.99892467 0 0 0 0
-0.13661326 -0.2389359 -0.79835278 0 0 0 0
-0.37457994 0.91452885 -0.86013961 0 0 0 0
0.2789667 -0.62581676 -0.79244125 0 0 0 0
-0.51708454 0.72208411 -0.99892467 0 0 0 0
-0.46760505 0.33929396 -0.89170569 0 0 0 0
-0.74957633 0.87230414 -0.98850411 0 0 0 0
0.13398159 -0.5032388 -0.75840646 0 0 0 0
-0.16100797 -0.2227751 -0.99892467 0 0 0 0
0.23956662 0.32458171 -0.79605174 0 0 0 0
-0.17729755 -0.23959561 -0.92672163 0 0 0 0
0.21201515 0.7168389 -0.99407768 0 0 0 0
-0.77643883 0.30451626 -0.98473716 0 0 0 0
0.18975882 -0.49692318 -0.99892467 0 0 0 0
-0.02342061 0.74066144 -0.7122317 0 0 0 0
-0.32426283 0.63407999 -0.99892467 0 0 0 0
0.1245748 0.86679375 -0.99892467 0 0 0 0
-0.84411669 0.76156843 -0.99892467 0 0 0 0
-0.03573801 -0.37836391 -0.99892467 0 0 0 0
-0.42557004 0.85857922 -0.75552779 0 0 0 0
-0.35871297 0.67485762 -0.99892467 0 0 0 0
-0.13858484 0.70944947 -0.70773047 0 0 0 0
0.12279041 -0.4522413 -0.75707519 0 0 0 0
0.17608912 0.83553606 -0.99892467 0 0 0 0
-0.49350774 0.67716962 -0.71048027 0 0 0 0
-0.21621931 0.080240779 -0.852112 0 0 0 0
0.16731034 0.66756588 -0.99892467 0 0 0 0
-0.079062916 -0.26741257 -0.99892467 0 0 0 0
-0.61199558 0.64720511 -0.70640785 0 0 0 0
0.14802493 0.97337425 -0.94662666 0 0 0 0
0.1960589 -0.79344541 -0.76556265 0 0 0 0
-0.29442242 0.46360934 -0.74212772 0 0 0 0
-0.66210639 0.88215327 -0.94011253 0 0 0 0
0.22822951 -0.48280254 -0.99892467 0 0 0 0
-0.10234237 -0.38329709 -0.99892467 0 0 0 0
-0.10200374 -0.13527517 -0.78607494 0 0 0 0
-0.33194399 0.61053383 -0.99892467 0 0 0 0
0.21395707 0.65969741 -0.99892467 0 0 0 0
0.20433705 -0.80882269 -0.76724452 0 0 0 0
-0.44911712 0.34137589 -0.96972418 0 0 0 0
-0.2911911 0.50460035 -0.99892467 0 0 0 0
0.2801668 -0.60962385 -0.99892467 0 0 0 0
-0.86576891 0.81405628 -0.99892467 0 0 0 0
-0.65146917 0.31858906 -0.97635972 0 0 0 0
-0.55171329 0.89458358 -0.84893888 0 0 0 0
-0.56908506 0.58040422 -0.99892467 0 0 0 0
0.17855395 -0.64158511 -0.76572931 0 0 0 0
0.20560813 0.76959866 -0.97760403 0 0 0 0
-0.36625996 0.86741781 -0.99892467 0 0 0 0
-0.14494874 0.29137653 -0.78415257 0 0 0 0
0.1706885 -0.41067883 -0.99892467 0 0 0 0
-0.65716511 0.65497166 -0.99892467 0 0 0 0
-0.1732273 0.081111036 -0.79806435 0 0 0 0
-0.01097246 0.45022917 -0.7547226 0 0 0 0
-0.1647483 -0.10986291 -0.80174184 0 0 0 0
-0.67697269 0.77016461 -0.99892467 0 0 0 0
0.09932448 -0.31669673 -0.99892467 0 0 0 0
0.39049575 -0.87762988 -0.99892467 0 0 0 0
0.072684824 0.94785732 -0.99892467 0 0 0 0
-0.0037054704 0.31958866 -0.74812317 0 0 0 0
-0.038488481 0.010771972 -0.99892467 0 0 0 0
0.12974449 -0.4660846 -0.75845915 0 0 0 0
-0.33727631 0.35397026 -0.91621077 0 0 0 0
0.18748403 -0.60869348 -0.76908726 0 0 0 0
-0.66677845 0.84222978 -0.99892467 0 0 0 0
-0.15273991 -0.40851724 -0.80782109 0 0 0 0
-0.44432524 0.42531601 -0.7475034 0 0 0 0
-0.55082959 0.78482395 -0.74027896 0 0 0 0
-0.22170846 0.90291649 -0.99892467 0 0 0 0
0.1152845 0.96968764 -0.78018314 0 0 0 0
-0.045138691 0.51632148 -0.73609811 0 0 0 0
0.13321441 0.38587135 -0.77639782 0 0 0 0
-0.25485739 0.36325145 -0.88737369 0 0 0 0
-0.54111993 0.33101547 -0.9610489 0 0 0 0
-0.076488167 -0.10523807 -0.99892467 0 0 0 0
-0.20668888 0.0019252462 -0.85160226 0 0 0 0
-0.65094721 0.7583186 -0.99892467 0 0 0 0
-0.057487272 0.80565435 -0.7302047 0 0 0 0
-0.70428097 0.87740439 -0.9449501 0 0 0 0
-0.23979461 0.92970568 -0.77602786 0 0 0 0
0.097827271 -0.96535528 -0.7823745 0 0 0 0
0.11052773 0.62421131 -0.99892467 0 0 0 0
-0.95198327 0.83997202 -0.99892467 0 0 0 0
-0.315101 0.35646743 -0.98143935 0 0 0 0
-0.75242007 0.71034962 -0.99892467 0 0 0 0
0.189045 -0.73326564 -0.76560855 0 0 0 0
0.15504153 -0.24657938 -0.99892467 0 0 0 0
-0.44476706 0.90662575 -0.95008624 0 0 0 0
0.25176167 -0.82331115 -0.77917618 0 0 0 0
-0.018714663 0.70996428 -0.99892467 0 0 0 0
-0.073938318 0.574902 -0.71963769 0 0 0 0
0.12413982 0.90209407 -0.99892467 0 0 0 0
-0.37884665 0.91404837 -0.8123315 0 0 0 0
0.035853796 0.96074373 -0.81436396 0 0 0 0
-0.20723659 0.65585256 -0.69594681 0 0 0 0
-0.5685789 0.56191128 -0.70729971 0 0 0 0
0.16595736 -0.19189397 -0.99892467 0 0 0 0
-0.60802704 0.83828586 -0.99892467 0 0 0 0
0.022044381 0.2286095 -0.75200874 0 0 0 0
0.12785417 -0.22659452 -0.76543695 0 0 0 0
-0.42140523 0.34449652 -0.96403515 0 0 0 0
-0.11200592 -0.77612418 -0.99684912 0 0 0 0
0.099312499 -0.021309165 -0.76438844 0 0 0 0
-0.40500569 0.47070199 -0.99892467 0 0 0 0
0.11319598 0.9694525 -0.834993 0 0 0 0
0.23618108 -0.55374944 -0.78351724 0 0 0 0
-0.85577631 0.86034602 -0.95205665 0 0 0 0
-0.33473131 0.91901577 -0.89292306 0 0 0 0
0.074342005 -0.084734023 -0.99892467 0 0 0 0
-0.40343699 0.51183367 -0.72585511 0 0 0 0
0.11591978 -0.47665673 -0.7545194 0 0 0 0
-0.14763899 -0.48331234 -0.9210487 0 0 0 0
-0.19872729 0.34107706 -0.77768916 0 0 0 0
-0.63569313 0.32036561 -0.98375416 0 0 0 0
0.19923636 0.8220681 -0.95450401 0 0 0 0
-0.040275835 0.76074886 -0.99892467 0 0 0 0
-0.054922499 0.89446718 -0.75322253 0 0 0 0
0.25386047 0.37225607 -0.81255132 0 0 0 0
-0.67793912 0.50397319 -0.71918088 0 0 0 0
-0.7864393 0.76994687 -0.99892467 0 0 0 0
0.050209574 0.44277242 -0.75865328 0 0 0 0
0.18292072 0.95642209 -0.83505952 0 0 0 0
-0.73775977 0.71579617 -0.99892467 0 0 0 0
-0.30723694 0.70806217 -0.71266556 0 0 0 0
-0.50942707 0.89934498 -0.93766057 0 0 0 0
0.021251014 0.88464898 -0.74827707 0 0 0 0
0.30350003 -0.62074232 -0.79900575 0 0 0 0
0.18175353 0.96603358 -0.95512211 0 0 0 0
-0.43496078 0.5445441 -0.71617109 0 0 0 0
-0.63444579 0.78579324 -0.99892467 0 0 0 0
0.31767517 -0.46440777 -0.99892467 0 0 0 0
-0.73037654 0.87446606 -0.9424901 0 0 0 0
-0.73757017 0.30889323 -0.98866326 0 0 0 0
-0.021192795 0.75087446 -0.71481794 0 0 0 0
-0.76078564 0.87104195 -0.92384422 0 0 0 0
0.20134088 0.61448467 -0.99892467 0 0 0 0
0.30265951 -0.55994749 -0.99892467 0 0 0 0
-0.053528439 -0.55555749 -0.99892467 0 0 0 0
0.21488272 -0.50216442 -0.7795651 0 0 0 0
0.17798355 0.97674757 -0.958722 0 0 0 0
-0.11718538 0.63971663 -0.70106238 0 0 0 0
0.40062964 -0.83634067 -0.98949432 0 0 0 0
-0.68132991 0.7492882 -0.99892467 0 0 0 0
0.33441651 -0.67009771 -0.99892467 0 0 0 0
0.23329474 0.54160827 -0.7411139 0 0 0 0
-0.28398177 0.92473018 -0.79096073 0 0 0 0
-0.72244543 0.61601925 -0.70176542 0 0 0 0
-0.3982442 0.91186422 -0.8886044 0 0 0 0
-0.13532715 0.19550642 -0.78459197 0 0 0 0
0.026179446 -0.062127724 -0.99892467 0 0 0 0
-0.43324605 0.74829721 -0.99892467 0 0 0 0
0.15344295 0.9739843 -0.95140618 0 0 0 0
-0.15422744 0.17976555 -0.99892467 0 0 0 0
0.062560454 -0.49930936 -0.99892467 0 0 0 0
0.23458388 0.53099263 -0.75430143 0 0 0 0
-0.099450797 -0.87929487 -0.98294663 0 0 0 0
0.075444199 0.74190038 -0.99892467 0 0 0 0
0.085625999 0.51322383 -0.74109274 0 0 0 0
-0.4243637 0.90892315 -0.87066126 0 0 0 0
0.097807854 -0.45949697 -0.75032532 0 0 0 0
0.33697617 -0.31217483 -0.92549652 0 0 0 0
0.27336082 -0.78232533 -0.99892467 0 0 0 0
0.31833705 -0.84956628 -0.99892467 0 0 0 0
-0.14653204 -0.49240863 -0.99389517 0 0 0 0
0.08638496 0.65582615 -0.99892467 0 0 0 0
0.29294217 -0.75442016 -0.7920785 0 0 0 0
-0.09695334 -0.86416411 -0.8072722 0 0 0 0
0.12533297 -0.14745626 -0.7672475 0 0 0 0
-0.11303937 -0.62122446 -0.80398363 0 0 0 0
-0.081726216 0.060571335 -0.99892467 0 0 0 0
-0.83726674 0.6162107 -0.70542079 0 0 0 0
-0.43416771 0.90781921 -0.82899457 0 0 0 0
-0.74135387 0.7952131 -0.99892467 0 0 0 0
-0.83975595 0.85277081 -0.99892467 0 0 0 0
0.079648733 -0.00033427865 -0.75990814 0 0 0 0
0.037092112 -0.14949043 -0.99892467 0 0 0 0
-0.17173782 -0.061518006 -0.80208081 0 0 0 0
-0.066556215 0.11225975 -0.99892467 0 0 0 0
-0.072234578 0.048439726 -0.99892467 0 0 0 0
-0.44155207 0.90698773 -0.83465976 0 0 0 0
-0.22083697 0.11818598 -0.84056389 0 0 0 0
-0.17885262 -0.12286112 -0.99892467 0 0 0 0
-0.010564279 0.49296269 -0.74339843 0 0 0 0
-0.16364968 -0.25137228 -0.80582619 0 0 0 0
-0.53900695 0.89601427 -0.95956093 0 0 0 0
-0.22564533 0.29050165 -0.7902478 0 0 0 0
-0.025600463 0.73682463 -0.99892467 0 0 0 0
-0.65898305 0.88250494 -0.97768682 0 0 0 0
-0.34490478 0.69188178 -0.70964026 0 0 0 0
-0.13207208 0.16519102 -0.99892467 0 0 0 0
0.37059608 -0.58902407 -0.98142219 0 0 0 0
-0.034131587 0.86174977 -0.99892467 0 0 0 0
-0.092398196 -0.87291348 -0.80634815 0 0 0 0
0.22612429 -0.90913635 -0.76980412 0 0 0 0
0.23203966 -0.73980558 -0.77663141 0 0 0 0
-0.34456518 0.55272895 -0.71688426 0 0 0 0
0.10337218 -0.17940949 -0.76051623 0 0 0 0
-0.11679318 -0.55693197 -0.80298138 0 0 0 0
-0.22166483 0.9267863 -0.99892467 0 0 0 0
0.24000052 0.48638839 -0.77255493 0 0 0 0
-0.13541681 0.10667823 -0.99892467 0 0 0 0
0.16399452 -0.957196 -0.75997949 0 0 0 0
-0.38865477 0.47843423 -0.73518765 0 0 0 0
0.031002015 -0.97359568 -0.801081 0 0 0 0
0.21454185 -0.41287372 -0.99892467 0 0 0 0
-0.14480126 -0.50663114 -0.96219015 0 0 0 0
-0.41655979 0.9098019 -0.98491293 0 0 0 0
0.10100807 -0.072024964 -0.76324898 0 0 0 0
-0.69159752 0.8618682 -0.99892467 0 0 0 0
-0.71696275 0.78405547 -0.99892467 0 0 0 0
-0.58782262 0.61863673 -0.69821876 0 0 0 0
-0.55809146 0.3291043 -0.94052398 0 0 0 0
0.28367722 -0.35881484 -0.99892467 0 0 0 0
0.33875743 -0.60402942 -0.99892467 0 0 0 0
-0.29683012 0.69086665 -0.99892467 0 0 0 0
-0.48545727 0.6148321 -0.99892467 0 0 0 0
-0.86917007 0.85883784 -0.98362142 0 0 0 0
-0.66196126 0.31740755 -0.93005776 0 0 0 0
-0.30332011 0.74258697 -0.99892467 0 0 0 0
-0.28950715 0.4928515 -0.73452663 0 0 0 0
0.051451046 -0.58716446 -0.99892467 0 0 0 0
-0.21279502 0.052102014 -0.86648387 0 0 0 0
-0.54701453 0.58577847 -0.99892467 0 0 0 0
0.2432373 -0.61044294 -0.78359115 0 0 0 0
-0.14231557 0.29795063 -0.78325903 0 0 0 0
-0.18395677 0.1997795 -0.79721099 0 0 0 0
0.18552047 0.93501407 -0.92666239 0 0 0 0
-0.40380248 0.91123837 -0.92400426 0 0 0 0
0.21909018 0.46868518 -0.99892467 0 0 0 0
0.053786583 0.48164451 -0.74845469 0 0 0 0
0.044226374 0.39909178 -0.77005082 0 0 0 0
-0.17731069 -0.23948762 -0.91311061 0 0 0 0
-0.45000654 0.34127572 -0.8869617 0 0 0 0
-0.73365486 0.5280534 -0.71101445 0 0 0 0
0.32597169 -0.67716759 -0.99892467 0 0 0 0
-0.13580656 -0.28177223 -0.79946482 0 0 0 0
0.14480257 -0.16880058 -0.77166557 0 0 0 0
0.27316248 0.21331027 -0.83228767 0 0 0 0
0.18272796 -0.66112316 -0.76620972 0 0 0 0
-0.38636971 0.51805973 -0.99892467 0 0 0 0
-0.082132936 0.12822141 -0.99892467 0 0 0 0
-0.59273672 0.32520291 -0.90772629 0 0 0 0
-0.044223893 0.76217794 -0.71848094 0 0 0 0
-0.071912058 0.00075020536 -0.99892467 0 0 0 0
0.14393994 -0.43592244 -0.76310688 0 0 0 0
-0.82873487 0.82641274 -0.99892467 0 0 0 0
0.1619726 0.38258791 -0.77818662 0 0 0 0
0.028605839 -0.16086753 -0.99892467 0 0 0 0
-0.60980552 0.52900189 -0.714715 0 0 0 0
-0.52474988 0.6324423 -0.69982868 0 0 0 0
0.20716277 0.71523798 -0.99892467 0 0 0 0
-0.59611994 0.56817353 -0.70475948 0 0 0 0
0.24767902 -0.89467764 -0.77588362 0 0 0 0
0.18778013 -0.95426291 -0.80103016 0 0 0 0
-0.062353384 -0.31716663 -0.99892467 0 0 0 0
0.22547296 -0.3772507 -0.99892467 0 0 0 0
-0.011815514 0.74398744 -0.99892467 0 0 0 0
-0.49050865 0.59124726 -0.99892467 0 0 0 0
-0.5601266 0.59941572 -0.99892467 0 0 0 0
0.09509819 0.59588051 -0.71946621 0 0 0 0
0.20117393 0.80611283 -0.9400025 0 0 0 0
-0.66111076 0.31750333 -0.95998305 0 0 0 0
-0.16772075 -0.31829214 -0.90083653 0 0 0 0
-0.49837682 0.67025208 -0.70883411 0 0 0 0
0.25518364 -0.79198503 -0.78104699 0 0 0 0
-0.10031178 -0.57285285 -0.79915178 0 0 0 0
-0.16119429 0.085717194 -0.99892467 0 0 0 0
-0.11962336 -0.015688917 -0.78699988 0 0 0 0
0.34235558 -0.74005198 -0.99892467 0 0 0 0
-0.17900871 -0.22553432 -0.90068561 0 0 0 0
0.28406855 -0.38444957 -0.99892467 0 0 0 0
0.19258019 -0.48823678 -0.77417588 0 0 0 0
-0.14660934 0.92873579 -0.76501423 0 0 0 0
0.044112187 0.57540339 -0.72327179 0 0 0 0
-0.058919825 0.65766644 -0.69815958 0 0 0 0
-0.36322045 0.9158079 -0.86505169 0 0 0 0
-0.41635725 0.64183235 -0.69886714 0 0 0 0
0.23596743 -0.85414904 -0.77408987 0 0 0 0
0.15910174 -0.74509847 -0.75742054 0 0 0 0
-0.52983868 0.7767728 -0.99892467 0 0 0 0
-0.56453425 0.66965216 -0.99892467 0 0 0 0
-0.54207158 0.83763647 -0.99892467 0 0 0 0
-0.83924514 0.86220741 -0.9458614 0 0 0 0
-0.56704706 0.6734221 -0.99892467 0 0 0 0
0.14719556 0.94479293 -0.99892467 0 0 0 0
0.057423268 -0.19320768 -0.74808747 0 0 0 0
-0.19280119 -0.064000092 -0.80768049 0 0 0 0
0.27500105 -0.48110983 -0.99892467 0 0 0 0
0.079482891 -0.57830143 -0.99892467 0 0 0 0
0.068553098 0.75944471 -0.99892467 0 0 0 0
-0.22708234 0.30435511 -0.99892467 0 0 0 0
0.17097302 0.59594578 -0.99892467 0 0 0 0
0.074924879 -0.65547043 -0.99892467 0 0 0 0
0.13818544 -0.8566817 -0.74847776 0 0 0 0
-0.58612579 0.7331304 -0.99892467 0 0 0 0
0.012260706 0.15632294 -0.74719888 0 0 0 0
0.0096016182 0.65415359 -0.99892467 0 0 0 0
-0.14925878 0.15449215 -0.99892467 0 0 0 0
0.052545853 -0.48222306 -0.99892467 0 0 0 0
-0.043299221 -0.21855554 -0.99892467 0 0 0 0
-0.3425585 0.66136658 -0.70163018 0 0 0 0
-0.74126393 0.71604937 -0.99892467 0 0 0 0
-0.4498077 0.59394872 -0.99892467 0 0 0 0
-0.11633592 -0.41170827 -0.99892467 0 0 0 0
0.13491721 0.75438124 -0.99892467 0 0 0 0
0.19617867 0.84724718 -0.98671669 0 0 0 0
-0.12702288 -0.24146155 -0.79591614 0 0 0 0
-0.018155405 -0.19535922 -0.99892467 0 0 0 0
0.28927991 -0.77716082 -0.79041278 0 0 0 0
0.19371934 0.86749893 -0.89746499 0 0 0 0
-0.018679891 -0.38636836 -0.99892467 0 0 0 0
-0.06441769 0.78819078 -0.99892467 0 0 0 0
0.10938104 0.59321994 -0.72062784 0 0 0 0
-0.22000806 0.26447511 -0.79733253 0 0 0 0
-0.13703467 0.093127251 -0.78820306 0 0 0 0
0.10129841 0.60431677 -0.71742594 0 0 0 0
0.076773576 0.96535134 -0.85959065 0 0 0 0
0.34106159 -0.34581706 -0.95033008 0 0 0 0
-0.09833771 0.14543337 -0.99892467 0 0 0 0
-0.51820064 0.67642647 -0.71106243 0 0 0 0
0.33840477 -0.83066308 -0.80157125 0 0 0 0
-0.47441125 0.90328777 -0.87368882 0 0 0 0
0.090461962 0.84742367 -0.99892467 0 0 0 0
0.21137981 0.72207069 -0.99824244 0 0 0 0
-0.68886918 0.31437746 -0.78037351 0 0 0 0
-0.10106457 -0.70424664 -0.80340898 0 0 0 0
-0.7438615 0.63413233 -0.70714873 0 0 0 0
0.38079223 -0.67298591 -0.99888265 0 0 0 0
0.061469544 -0.044605166 -0.75378001 0 0 0 0
-0.66484457 0.86474478 -0.99892467 0 0 0 0
0.21725474 0.67369252 -0.9675566 0 0 0 0
-0.49664861 0.8967154 -0.99892467 0 0 0 0
-0.70303696 0.87754446 -0.94427919 0 0 0 0
-0.83841318 0.86230111 -0.98323429 0 0 0 0
0.21615683 0.68273354 -0.95902771 0 0 0 0
-0.17858186 -0.22904183 -0.91270673 0 0 0 0
-0.26660866 0.36192814 -0.85292816 0 0 0 0
0.38239926 -0.68621939 -0.99583602 0 0 0 0
-0.077906556 -0.009990518 -0.99892467 0 0 0 0
0.066125669 0.86598307 -0.99892467 0 0 0 0
0.2415643 0.37495658 -0.78275102 0 0 0 0
-0.067972191 -0.29193157 -0.99892467 0 0 0 0
-0.014506005 0.7484377 -0.99892467 0 0 0 0
-0.37647426 0.34955618 -0.93110681 0 0 0 0
-0.16490528 0.1806546 -0.79280651 0 0 0 0
0.19956049 -0.5573684 -0.99892467 0 0 0 0
-0.10696305 -0.075332843 -0.78552318 0 0 0 0
-0.15730076 0.30909669 -0.78684384 0 0 0 0
-0.41252506 0.91025621 -0.84832275 0 0 0 0
-0.16382544 -0.24189833 -0.99892467 0 0 0 0
0.10676756 0.96512353 -0.99892467 0 0 0 0
0.18368724 0.95011014 -0.86348861 0 0 0 0
0.21458758 0.6956557 -0.95538712 0 0 0 0
-0.84966981 0.60602504 -0.70316118 0 0 0 0
-0.28379038 0.4357906 -0.99892467 0 0 0 0
-0.55318785 0.89441752 -0.96740216 0 0 0 0
-0.051239308 0.035814572 -0.99892467 0 0 0 0
0.055717018 -0.1218515 -0.99892467 0 0 0 0
-0.73830348 0.6756345 -0.71776801 0 0 0 0
-0.16120516 0.079034969 -0.79497617 0 0 0 0
0.22898929 -0.92423236 -0.77008134 0 0 0 0
-0.21854961 0.11593939 -0.99892467 0 0 0 0
-0.11686329 0.088727221 -0.78304988 0 0 0 0
-0.13580208 0.62026948 -0.70562762 0 0 0 0
-0.4291214 0.3436276 -0.9315244 0 0 0 0
0.21116345 -0.54006243 -0.77741158 0 0 0 0
0.11299123 -0.021086516 -0.76796716 0 0 0 0
-0.17027509 -0.15393907 -0.99892467 0 0 0 0
0.15178968 -0.46628025 -0.76420957 0 0 0 0
0.24504706 0.28725332 -0.80612981 0 0 0 0
0.30802017 -0.073731393 -0.87939537 0 0 0 0
0.13438106 -0.12669562 -0.77025783 0 0 0 0
0.19537114 -0.6899032 -0.76861328 0 0 0 0
-0.11260559 -0.77119642 -0.96925235 0 0 0 0
0.1802749 0.8992992 -0.99892467 0 0 0 0
-0.13344282 -0.40291712 -0.99892467 0 0 0 0
-0.6095804 0.67790902 -0.99892467 0 0 0 0
-0.33100367 0.40877911 -0.75550681 0 0 0 0
-0.14292523 0.70535606 -0.70680213 0 0 0 0
-0.29958981 0.4215014 -0.99892467 0 0 0 0
-0.23340058 0.22142656 -0.83846915 0 0 0 0
-0.40344107 0.63722998 -0.69726461 0 0 0 0
0.30964673 -0.087125711 -0.87812215 0 0 0 0
-0.036211267 -0.14630143 -0.99892467 0 0 0 0
-0.0076028868 0.65416211 -0.70072687 0 0 0 0
-0.30972672 0.57890773 -0.71105075 0 0 0 0
-0.010745533 -0.18146263 -0.99892467 0 0 0 0
0.033016775 0.63669157 -0.70665801 0 0 0 0
0.025475034 0.66615701 -0.99892467 0 0 0 0
-0.19826585 0.058088519 -0.99892467 0 0 0 0
-0.6090889 0.79547715 -0.99892467 0 0 0 0
0.069730826 -0.090194017 -0.99892467 0 0 0 0
-0.29638126 0.43896067 -0.74860448 0 0 0 0
-0.32152158 0.41844231 -0.99892467 0 0 0 0
-0.014580371 0.43707874 -0.75809628 0 0 0 0
-0.17796165 -0.23413847 -0.90885144 0 0 0 0
0.36624783 -0.55321771 -0.97959203 0 0 0 0
0.071461253 -0.15507191 -0.7529428 0 0 0 0
0.14028567 -0.46350729 -0.99892467 0 0 0 0
0.078723945 -0.093353875 -0.75676471 0 0 0 0
-0.27898869 0.37234738 -0.76683193 0 0 0 0
-0.08887127 -0.46067482 -0.99892467 0 0 0 0
-0.3420423 0.85327351 -0.75152498 0 0 0 0
-0.088018082 -0.42239359 -0.99892467 0 0 0 0
-0.60811901 0.65832067 -0.70917708 0 0 0 0
0.28637016 -0.71282023 -0.79166019 0 0 0 0
-0.52259153 0.56490976 -0.99892467 0 0 0 0
0.229479 -0.82829261 -0.77320224 0 0 0 0
0.22870485 -0.45856199 -0.99892467 0 0 0 0
-0.78925842 0.53514582 -0.70735848 0 0 0 0
0.17927399 -0.62347913 -0.76648217 0 0 0 0
-0.14333373 -0.39735925 -0.99892467 0 0 0 0
0.35446137 -0.45615986 -0.94509143 0 0 0 0
-0.021726625 0.70727175 -0.99892467 0 0 0 0
0.3882134 -0.77898735 -0.99892467 0 0 0 0
0.023149872 0.72407806 -0.99892467 0 0 0 0
-0.16689532 -0.32507512 -0.90947104 0 0 0 0
0.17977396 -0.9552502 -0.80934185 0 0 0 0
0.23309909 -0.49422678 -0.78456944 0 0 0 0
-0.13522895 -0.096063219 -0.99892467 0 0 0 0
0.2247197 -0.50032246 -0.99892467 0 0 0 0
-0.67335641 0.31612435 -0.98274505 0 0 0 0
0.09490215 0.65835565 -0.99892467 0 0 0 0
0.20833394 -0.81599665 -0.76806438 0 0 0 0
0.33758712 -0.31720585 -0.90538913 0 0 0 0
-0.39511222 0.42192715 -0.74997288 0 0 0 0
-0.12418631 0.94054848 -0.99892467 0 0 0 0
-0.22636378 0.16360213 -0.8274017 0 0 0 0
0.3745237 -0.62136662 -0.96335393 0 0 0 0
-0.066264227 0.83604246 -0.99892467 0 0 0 0
0.21886162 0.66046035 -0.92880255 0 0 0 0
-0.16239813 -0.36203039 -0.95092702 0 0 0 0
-0.0094010122 0.80609149 -0.99892467 0 0 0 0
0.078191578 0.75257605 -0.71213961 0 0 0 0
0.21938014 -0.95036626 -0.81132162 0 0 0 0
-0.060765751 0.82405829 -0.73509419 0 0 0 0
-0.21534595 0.83592194 -0.99892467 0 0 0 0
-0.30342251 0.56370479 -0.71528524 0 0 0 0
-0.63216025 0.64981282 -0.70771927 0 0 0 0
0.12702741 -0.52693856 -0.99892467 0 0 0 0
-0.3894307 0.76899213 -0.73109323 0 0 0 0
-0.71888953 0.74480695 -0.99892467 0 0 0 0
0.17720099 0.88997424 -0.99892467 0 0 0 0
-0.16290152 0.65126061 -0.69654095 0 0 0 0
