# .PCD v0.7 - Point Cloud Data file format
VERSION 0.7
FIELDS x y z normal_x normal_y normal_z curvature
SIZE 4 4 4 4 4 4 4
TYPE F F F F F F F
COUNT 1 1 1 1 1 1 1
WIDTH 1284
HEIGHT 1
VIEWPOINT 0 0 0 1 0 0 0
POINTS 1284
DATA ascii
1 -0.54788333 -0.37496719 1 -0 0 0
1 0.48430204 -0.53019226 1 -0 0 0
-0.84746218 1 -0.56756955 0 1 0 0
-1 0.74013227 0.21189892 -1 -0 -0 0
1 -0.8107388 0.40432012 1 -0 0 0
0.71959519 1 0.94246352 0 1 0 0
-0.66481256 1 0.83803391 0 1 0 0
0.99999982 0.14409818 0.2017616 1 -0 0 0
0.73884624 0.47234365 -0.9999994 0 0 -1 0
1 0.039108641 -0.52516836 1 -0 0 0
-0.34791553 1 -0.19305965 0 1 0 0
-0.29421481 0.57937515 1.0000004 0 -0 1 0
0.99999958 -0.029848767 0.80387372 1 -0 0 0
-0.060287938 1 0.82832724 0 1 0 0
0.56115359 1 -0.13412815 0 1 0 0
1 -0.51466691 -0.16756789 1 -0 0 0
0.95494002 1 0.073058724 0 1 0 0
-0.11435712 1 -0.261489 0 1 0 0
0.34936199 0.92373008 -0.99999934 0 0 -1 0
0.97911578 0.021978132 -0.99999946 0 0 -1 0
0.99999994 -0.46812829 0.55234754 1 -0 0 0
-0.50527722 1 -0.39041415 0 1 0 0
0.093153529 1 0.29147038 0 1 0 0
0.99999928 0.60635805 0.80379289 1 -0 0 0
-0.91035336 -1 -0.31545037 0 -1 0 0
-0.52167594 0.24802522 -1 0 0 -1 0
-0.99053824 0.099299379 1 0 -0 1 0
-0.99195105 0.59535468 -1 0 0 -1 0
0.426368 0.60675466 -0.99999946 0 0 -1 0
-0.59441578 1 -0.8011418 0 1 0 0
-0.85244954 0.28723714 1.0000001 0 -0 1 0
0.91174656 -0.35830009 1.0000004 0 -0 1 0
-0.39943519 1 -0.98794585 0 1 0 0
0.87261957 0.010092332 -0.99999952 0 0 -1 0
-1 0.55375564 0.57948768 -1 -0 -0 0
-0.93648654 -0.055957198 1 0 -0 1 0
0.90846437 0.48137638 1.0000007 0 -0 1 0
-0.19645569 -0.32824662 -1 0 0 -1 0
0.27133128 -0.71592486 -1 0 0 -1 0
0.30955735 0.88599128 1.0000006 0 -0 1 0
0.37028307 -1 -0.48984832 0 -1 0 0
1 -0.98869401 0.77605838 1 -0 0 0
0.1627191 1 -0.81513727 0 1 0 0
0.21602015 -1 0.20730251 0 -1 0 0
-0.56131643 -0.20187061 1.0000002 0 -0 1 0
-0.78632122 -1 -0.35460576 0 -1 0 0
-0.79194659 0.8056137 1.0000001 0 -0 1 0
0.27847981 0.31150219 -0.9999997 0 0 -1 0
-1 -0.29830697 0.97136158 -1 -0 -0 0
-1 0.52736145 -0.89165127 -1 -0 -0 0
0.99999952 -0.07297492 0.99920094 1 -0 0 0
-0.38980764 -0.88600403 1 0 -0 1 0
1 -0.83544213 -0.60924339 1 -0 0 0
-0.63836795 1 -0.2430346 0 1 0 0
0.13418579 -0.36020112 -1 0 0 -1 0
0.96956873 0.48890606 -0.99999928 0 0 -1 0
0.93898845 -0.47779709 1.0000002 0 -0 1 0
-0.28129491 -0.18950953 -1 0 0 -1 0
-0.75601214 -1 -0.25001451 0 -1 0 0
-1 0.96116489 -0.88477504 -1 -0 -0 0
0.66945511 -0.79696238 1.0000001 0 -0 1 0
0.29200163 -0.66531837 -1 0 0 -1 0
0.1095243 -1 0.036896266 0 -1 0 0
0.54946637 1 -0.67708457 0 1 0 0
-0.22748354 -0.53941822 1.0000002 0 -0 1 0
-1 0.14465326 -0.33210886 -1 -0 -0 0
-0.020541107 -0.24852118 1.0000004 0 -0 1 0
-0.12617801 1 -0.40546876 0 1 0 0
-0.95147264 -1 -0.13969827 0 -1 0 0
-1 -0.51278472 -0.11406332 -1 -0 -0 0
0.37758943 -0.4721739 1.0000002 0 -0 1 0
-0.35010421 -1 -0.60617858 0 -1 0 0
-1 0.79095179 -0.07666152 -1 -0 -0 0
0.79858923 -0.30661106 1.0000004 0 -0 1 0
0.75597143 -1 0.29753271 0 -1 0 0
0.38333389 0.085077859 1.0000005 0 -0 1 0
0.54298306 1 0.80332512 0 1 0 0
0.8638348 -1 -0.19184479 0 -1 0 0
0.99999934 0.47701067 0.78606629 1 -0 0 0
-0.95791131 -1 0.25154439 0 -1 0 0
-0.052045073 -1 -0.10869514 0 -1 0 0
1 0.14026393 -0.89190447 1 -0 0 0
-0.2902312 1 0.50055367 0 1 0 0
0.19794048 0.016246852 -0.99999988 0 0 -1 0
-0.40501896 -1 0.28054526 0 -1 0 0
0.051850062 -1 -0.50565517 0 -1 0 0
-0.63921785 0.97411788 -0.99999982 0 0 -1 0
0.76084059 -0.78957874 1.0000001 0 -0 1 0
0.37399659 -1 -0.81624073 0 -1 0 0
-1 -0.53608078 -0.55448079 -1 -0 -0 0
0.49466869 0.60845071 -0.99999946 0 0 -1 0
-0.805143 -0.20019999 -1 0 0 -1 0
-1 0.84816724 0.90694034 -1 -0 -0 0
0.039607465 -1 -0.20127556 0 -1 0 0
0.35705131 -0.31854084 -1 0 0 -1 0
-0.46388027 1 0.58630985 0 1 0 0
0.99999994 -0.66682863 0.73463786 1 -0 0 0
-0.120918 -0.093839921 1.0000005 0 -0 1 0
-1 0.69384664 0.46451211 -1 -0 -0 0
0.12521933 -1 -0.99268949 0 -1 0 0
-0.94061148 0.44301188 1 0 -0 1 0
0.23935688 1 0.85274774 0 1 0 0
-0.97082812 -0.067604221 -1 0 0 -1 0
-1 -0.8482126 -0.24292193 -1 -0 -0 0
-0.26540118 1 0.65140414 0 1 0 0
0.051426303 0.94819909 1.0000005 0 -0 1 0
0.99999982 -0.18438232 0.56869787 1 -0 0 0
-0.4609881 -1 -0.016809793 0 -1 0 0
1 0.57414776 -0.91382444 1 -0 0 0
0.53982455 -0.37093955 -0.99999994 0 0 -1 0
-0.60546368 0.27980578 1.0000002 0 -0 1 0
-1 -0.49816614 0.8952688 -1 -0 -0 0
-1 -0.13435405 0.56205904 -1 -0 -0 0
1 -0.6400252 -0.95337677 1 -0 0 0
0.99940687 1 -0.7428596 0 1 0 0
0.11097395 1 -0.92711085 0 1 0 0
0.71771854 -1 0.038292803 0 -1 0 0
-0.33142579 1 -0.87954104 0 1 0 0
0.78866088 1 -0.1577937 0 1 0 0
0.43184799 0.49915248 -0.99999952 0 0 -1 0
-1 -0.24169113 -0.65553629 -1 -0 -0 0
0.22344396 1 -0.97767526 0 1 0 0
-1 -0.71101481 -0.26309112 -1 -0 -0 0
-1 0.47230953 0.17830162 -1 -0 -0 0
-1 -0.6244064 0.89608508 -1 -0 -0 0
1 -0.5876627 -0.22575016 1 -0 0 0
0.84218937 -1 -0.056554917 0 -1 0 0
-1 0.90744764 -0.85045648 -1 -0 -0 0
-0.13658714 -0.75459427 1.0000001 0 -0 1 0
-0.10687665 -1 0.79201418 0 -1 0 0
0.054932348 1 0.70234549 0 1 0 0
0.36738464 1 -0.054891802 0 1 0 0
0.025423702 1 0.58906043 0 1 0 0
0.13969894 1 -0.55764222 0 1 0 0
-0.20773977 1 -0.43772021 0 1 0 0
-1 -0.62308711 -0.15171722 -1 -0 -0 0
-0.70372093 -1 0.16050117 0 -1 0 0
-0.66785234 0.25021386 -1 0 0 -1 0
-0.79378998 0.34827304 1.0000001 0 -0 1 0
1 -0.63463515 0.23510458 1 -0 0 0
-0.23333809 0.94657367 -0.99999964 0 0 -1 0
0.99999982 0.39403519 -0.012490734 1 -0 0 0
-0.20297885 0.89573663 1.0000004 0 -0 1 0
-0.39142239 0.05582872 1.0000002 0 -0 1 0
-0.57009447 1 0.50876772 0 1 0 0
0.99999946 0.72983617 0.37959945 1 -0 0 0
0.02693863 -0.20876335 1.0000004 0 -0 1 0
0.96739048 0.91516191 1.000001 0 -0 1 0
-0.70461893 1 -0.86599845 0 1 0 0
0.3017461 1 0.0032908334 0 1 0 0
-0.97769135 -1 -0.45478475 0 -1 0 0
-0.8385309 0.21595743 1.0000001 0 -0 1 0
0.76356709 -0.96399254 1 0 -0 1 0
0.96404928 -0.74049622 -0.99999988 0 0 -1 0
-1 0.31719294 -0.37885261 -1 -0 -0 0
-1 0.99781632 -0.75650281 -1 -0 -0 0
1 -0.32884592 -0.46719807 1 -0 0 0
-0.29457608 -1 0.30167401 0 -1 0 0
-0.95930272 -1 0.55806518 0 -1 0 0
-0.79681051 0.56883675 1.0000001 0 -0 1 0
0.9999997 0.068459131 0.57478118 1 -0 0 0
-0.50490588 -0.39094174 1.0000002 0 -0 1 0
-0.31070468 0.46686056 1.0000004 0 -0 1 0
-0.76257521 -0.035316497 1.0000001 0 -0 1 0
0.99999946 0.33697087 0.74440438 1 -0 0 0
0.51643926 0.63105708 1.0000007 0 -0 1 0
0.25500816 1 0.52925551 0 1 0 0
0.83442014 -1 -0.82477146 0 -1 0 0
0.21999204 -1 -0.14592886 0 -1 0 0
1 -0.85024124 -0.88601547 1 -0 0 0
-1 -0.959539 0.93155771 -1 -0 -0 0
-1 -0.14279932 0.33275989 -1 -0 -0 0
-1 0.81962323 0.18298383 -1 -0 -0 0
0.058609016 0.48405823 1.0000005 0 -0 1 0
0.9999997 0.82307845 -0.26306227 1 -0 0 0
1 -0.45051393 -0.64972305 1 -0 0 0
-1 0.24770865 -0.005606812 -1 -0 -0 0
-1 -0.39496404 -0.44432217 -1 -0 -0 0
-0.81892228 -1 0.63444901 0 -1 0 0
-0.75010985 -0.49155724 1.0000001 0 -0 1 0
0.046406481 -0.99988347 1 0 -0 1 0
0.79483408 -1 0.42919192 0 -1 0 0
-0.28741747 1 -0.9915089 0 1 0 0
-1 -0.2435547 0.67755973 -1 -0 -0 0
-1 -0.93954659 0.89862591 -1 -0 -0 0
0.88724083 1 0.55710983 0 1 0 0
-0.64814049 -0.94460273 1 0 -0 1 0
0.99999982 -0.019025793 0.32086593 1 -0 0 0
-1 -0.16637975 -0.48923492 -1 -0 -0 0
0.44328606 0.24780798 -0.99999964 0 0 -1 0
-0.075522214 1 0.081968106 0 1 0 0
-1 0.31079718 0.49449259 -1 -0 -0 0
0.10955916 -0.9157759 -1 0 0 -1 0
-0.58971131 0.73332494 1.0000002 0 -0 1 0
0.84859037 -1 -0.86636412 0 -1 0 0
-1 -0.89263099 0.34132904 -1 -0 -0 0
0.81525803 1 0.78854293 0 1 0 0
-0.41848686 0.92744553 -0.99999976 0 0 -1 0
0.40818346 -1 -0.85550976 0 -1 0 0
0.29683948 1 -0.22207832 0 1 0 0
0.69900906 -0.047504902 1.0000005 0 -0 1 0
-0.90556681 1 0.8158645 0 1 0 0
0.049678169 0.0093240244 -0.99999994 0 0 -1 0
1 0.17571704 -0.3427633 1 -0 0 0
-0.171134 0.47315314 1.0000004 0 -0 1 0
-0.50484985 1 -0.32108694 0 1 0 0
-0.18761097 -0.38433021 -1 0 0 -1 0
1 -0.42274556 -0.658768 1 -0 0 0
0.038360454 0.237463 -0.99999988 0 0 -1 0
0.57141733 1 -0.0097819902 0 1 0 0
-1 0.21356732 0.38836116 -1 -0 -0 0
-1 0.38900295 0.92830956 -1 -0 -0 0
0.95258445 -1 0.20241331 0 -1 0 0
0.6828953 0.8957535 -0.99999923 0 0 -1 0
0.053928573 0.39834523 1.0000005 0 -0 1 0
-0.87661409 -0.23332621 -1 0 0 -1 0
0.81045228 -0.91713053 1 0 -0 1 0
0.99999988 -0.19370705 0.4406994 1 -0 0 0
0.97388363 0.045112554 1.0000005 0 -0 1 0
-0.19507217 -0.883295 -1 0 0 -1 0
0.99999994 0.73456579 -0.62078696 1 -0 0 0
-0.21522386 -1 0.51183927 0 -1 0 0
-1 0.97714329 0.41493055 -1 -0 -0 0
-1 -0.98592532 0.43280312 -1 -0 -0 0
-1 0.52500564 -0.36570498 -1 -0 -0 0
0.50102836 0.29561067 1.0000006 0 -0 1 0
-0.83270407 -0.50620276 1.0000001 0 -0 1 0
-0.58332562 1 -0.18620396 0 1 0 0
0.56098276 -1 -0.071755692 0 -1 0 0
0.22862525 -0.26046348 1.0000004 0 -0 1 0
-0.61381674 -0.24717885 -1 0 0 -1 0
0.9999994 0.57867992 0.59645152 1 -0 0 0
0.88216174 -0.37413725 -0.99999976 0 0 -1 0
1 -0.65326047 0.28615281 1 -0 0 0
-0.33140048 -1 -0.001824643 0 -1 0 0
0.90595818 0.35688123 1.0000006 0 -0 1 0
-0.094151847 0.2007733 1.0000005 0 -0 1 0
0.92296195 0.154181 1.0000006 0 -0 1 0
0.43756372 0.42891771 -0.99999958 0 0 -1 0
-0.41039625 0.94013351 -0.9999997 0 0 -1 0
-0.56482309 1 0.93874341 0 1 0 0
-0.30010065 0.015158957 -1 0 0 -1 0
0.71527934 1 -0.012986114 0 1 0 0
-0.57686156 -1 0.40026039 0 -1 0 0
0.86385959 -0.94930321 -1 0 0 -1 0
-0.0283718 -1 -0.44829676 0 -1 0 0
0.99999946 0.72933656 0.30822426 1 -0 0 0
0.027859861 0.73146337 -0.99999964 0 0 -1 0
-0.20900422 -1 -0.80145115 0 -1 0 0
0.29042628 1 0.77078038 0 1 0 0
0.72962403 1 0.45024651 0 1 0 0
1 -0.91241449 -0.23917699 1 -0 0 0
-1 -0.51111668 -0.15041216 -1 -0 -0 0
-1 0.64926261 0.68567604 -1 -0 -0 0
-0.46486762 -1 0.74888408 0 -1 0 0
-0.41093728 -1 0.21629052 0 -1 0 0
0.9999994 0.24180156 0.96155232 1 -0 0 0
0.28742942 -1 0.619735 0 -1 0 0
-1 0.96804148 -0.83251268 -1 -0 -0 0
0.58027369 -0.23979755 -0.99999982 0 0 -1 0
-0.73765731 0.63131815 1.0000001 0 -0 1 0
1 -0.41842192 -0.1410386 1 -0 0 0
0.2531527 -1 -0.19706018 0 -1 0 0
-1 0.64314848 0.84600216 -1 -0 -0 0
0.92226905 1 -0.36482996 0 1 0 0
-0.044160008 1 -0.98875749 0 1 0 0
-0.88610113 -0.58259749 -1 0 0 -1 0
-0.47688121 1 -0.10117276 0 1 0 0
-0.57702398 0.37155175 -1 0 0 -1 0
-0.040604815 1 -0.97471637 0 1 0 0
-0.98116618 -0.44749284 1 0 -0 1 0
0.80772603 -0.81130719 -1 0 0 -1 0
0.26965889 -0.56989819 1.0000002 0 -0 1 0
-0.75654644 -0.37900248 1.0000001 0 -0 1 0
0.0090864664 0.27468058 -0.99999988 0 0 -1 0
0.0057223435 1 0.39633474 0 1 0 0
-0.33684441 1 0.95884633 0 1 0 0
0.036812127 0.93786949 1.0000005 0 -0 1 0
-1 -0.43097615 0.54440838 -1 -0 -0 0
-0.52854383 -1 0.66583949 0 -1 0 0
-0.77193034 1 -0.9923709 0 1 0 0
0.73342377 -0.38654304 -0.99999982 0 0 -1 0
-0.40955696 -0.84266871 -1 0 0 -1 0
0.77760726 1 -0.31605232 0 1 0 0
0.047215428 -1 0.93933499 0 -1 0 0
0.99999946 0.81216449 0.21170665 1 -0 0 0
0.59914219 0.61804116 -0.9999994 0 0 -1 0
-0.99939996 1 0.82829094 0 1 0 0
0.77197474 -1 -0.91074324 0 -1 0 0
-1 0.62129182 0.32335484 -1 -0 -0 0
1 0.60579383 -0.93405473 1 -0 0 0
-0.39338836 -1 0.4323836 0 -1 0 0
-1 -0.34639341 -0.81959921 -1 -0 -0 0
0.6958608 0.97134167 -0.99999917 0 0 -1 0
-1 0.035683766 -0.77276284 -1 -0 -0 0
-0.22552373 -1 -0.18936069 0 -1 0 0
0.66879177 -0.052005015 -0.9999997 0 0 -1 0
-0.68992102 0.43333533 1.0000001 0 -0 1 0
-0.36865458 -0.57895184 -1 0 0 -1 0
0.99999976 -0.43323287 0.93941706 1 -0 0 0
1 -0.60134423 -0.37270319 1 -0 0 0
0.21259189 1 0.82169718 0 1 0 0
-0.82790422 -0.40709266 -1 0 0 -1 0
0.18802677 0.64605588 -0.99999958 0 0 -1 0
1 0.22672011 -0.517802 1 -0 0 0
-1 0.26542214 0.25702342 -1 -0 -0 0
-1 -0.48374623 -0.19351661 -1 -0 -0 0
-1 -0.89804864 -0.59862804 -1 -0 -0 0
0.92447358 -0.44370103 1.0000002 0 -0 1 0
-0.39956713 0.9244889 -0.99999976 0 0 -1 0
1 -0.65707928 -0.86782128 1 -0 0 0
-0.1425487 0.95850927 -0.99999958 0 0 -1 0
0.22743763 -0.65858781 -1 0 0 -1 0
-0.24012464 -0.18093914 -1 0 0 -1 0
0.79255629 -0.8057766 -1 0 0 -1 0
-0.10006773 1 -0.32443437 0 1 0 0
0.9789198 -0.68406707 -0.99999982 0 0 -1 0
-0.28746003 0.27449223 1.0000004 0 -0 1 0
1 -0.84527034 -0.73454028 1 -0 0 0
0.43785959 -1 -0.58873379 0 -1 0 0
-1 0.74383092 0.30386919 -1 -0 -0 0
-0.92223245 -0.21936217 -1 0 0 -1 0
-1 0.34441847 -0.25830802 -1 -0 -0 0
1 -0.69484401 0.55245703 1 -0 0 0
0.12518342 -1 0.35086077 0 -1 0 0
0.21850288 0.40366045 -0.9999997 0 0 -1 0
-0.95606863 1 0.37635505 0 1 0 0
-0.8298021 -0.082310937 1.0000001 0 -0 1 0
-0.8005535 -0.20180276 1.0000001 0 -0 1 0
-1 -0.96420228 -0.68821627 -1 -0 -0 0
0.74855453 1 -0.65446436 0 1 0 0
-0.33150271 -0.89659745 1 0 -0 1 0
-0.67775571 0.97560459 1.0000001 0 -0 1 0
-0.19885395 -1 -0.69828659 0 -1 0 0
0.44948524 1 -0.11866603 0 1 0 0
0.95474595 -1 0.70313734 0 -1 0 0
0.99999964 -0.013469223 0.69753069 1 -0 0 0
-0.027915552 -0.19776975 1.0000004 0 -0 1 0
-1 0.71227658 -0.94446945 -1 -0 -0 0
0.19376655 0.38455763 1.0000006 0 -0 1 0
-1 0.53623945 0.80000138 -1 -0 -0 0
1 -0.31865662 0.3684766 1 -0 0 0
0.99999934 0.46422467 0.84550029 1 -0 0 0
-0.67460388 1 -0.050082512 0 1 0 0
0.88884801 -0.75721788 -0.99999994 0 0 -1 0
-1 -0.12875393 0.48744449 -1 -0 -0 0
0.6430434 -0.72387803 1.0000001 0 -0 1 0
-0.46267888 -1 0.24497041 0 -1 0 0
0.34441277 -1 0.32189626 0 -1 0 0
-0.90139455 -0.040857755 1 0 -0 1 0
-1 0.87143946 -0.16297492 -1 -0 -0 0
-0.98481977 0.42603913 -1 0 0 -1 0
0.16482329 -0.6470964 1.0000001 0 -0 1 0
-0.16962445 -0.37209198 -1 0 0 -1 0
-1 -0.96117765 0.47434634 -1 -0 -0 0
-1 -0.62904865 0.67999887 -1 -0 -0 0
0.47915277 1 0.24152137 0 1 0 0
-0.57413131 -1 -0.93648416 0 -1 0 0
0.9583807 0.53697407 -0.99999923 0 0 -1 0
1 -0.58781862 -0.086768724 1 -0 0 0
-1 0.83314842 -0.66228729 -1 -0 -0 0
0.04023483 -0.92903537 -1 0 0 -1 0
-1 -0.00077190669 -0.025792306 -1 -0 -0 0
1 -0.94669235 -0.45157382 1 -0 0 0
0.22793053 0.06531132 1.0000005 0 -0 1 0
0.22180659 -1 0.33598351 0 -1 0 0
0.5227406 -1 0.29218638 0 -1 0 0
-0.76661676 1 -0.71305352 0 1 0 0
0.58964282 0.6373834 1.0000007 0 -0 1 0
1 -0.85798484 -0.54796171 1 -0 0 0
-1 0.96223921 -0.53078026 -1 -0 -0 0
-1 0.40979406 0.34528744 -1 -0 -0 0
-1 0.19412225 0.30309302 -1 -0 -0 0
0.11660091 -1 0.92551744 0 -1 0 0
-1 -0.23741592 -0.51311284 -1 -0 -0 0
-0.73570877 -0.20489903 -1 0 0 -1 0
-0.92803162 1 0.43176332 0 1 0 0
1 -0.41125873 -0.32606995 1 -0 0 0
-0.55000937 1 -0.96463269 0 1 0 0
0.56598949 0.16160774 1.0000006 0 -0 1 0
-0.35597903 0.89219809 1.0000004 0 -0 1 0
0.17257054 1 -0.054427531 0 1 0 0
-1 -0.88150954 -0.58740765 -1 -0 -0 0
0.1757239 -1 -0.98757589 0 -1 0 0
-1 0.090301335 -0.78489178 -1 -0 -0 0
-0.71406507 0.67076933 -1 0 0 -1 0
0.99999946 0.58582014 0.49351746 1 -0 0 0
0.87285101 -1 0.65175939 0 -1 0 0
0.93381047 -0.48649934 -0.99999976 0 0 -1 0
0.065092012 -1 -0.85751218 0 -1 0 0
-1 0.31510743 -0.064315259 -1 -0 -0 0
0.0031756754 -0.72289228 -1 0 0 -1 0
0.9499681 0.072567984 1.0000005 0 -0 1 0
1 0.62844729 -0.88300896 1 -0 0 0
1 -0.82885557 0.25498754 1 -0 0 0
0.6615572 -0.45382807 -0.99999988 0 0 -1 0
0.40190524 1 0.90059179 0 1 0 0
-1 -0.59481579 0.59876662 -1 -0 -0 0
-0.30764472 0.47967759 1.0000004 0 -0 1 0
0.45127332 -0.0021032286 -0.99999976 0 0 -1 0
-0.19825959 1 0.022887258 0 1 0 0
0.96215975 -1 0.78996956 0 -1 0 0
-0.56787449 -1 -0.66363829 0 -1 0 0
0.56251562 -1 -0.6904785 0 -1 0 0
-0.023611188 1 0.55953825 0 1 0 0
-0.0050527123 1 -0.36952624 0 1 0 0
-1 0.39095113 0.9638437 -1 -0 -0 0
-1 0.93652409 -0.38084009 -1 -0 -0 0
-1 0.86812478 0.016208183 -1 -0 -0 0
0.66818124 -0.20279236 1.0000004 0 -0 1 0
1 -0.94861972 -0.47406301 1 -0 0 0
-0.25234145 -1 0.7892161 0 -1 0 0
0.016334968 -0.45404223 -1 0 0 -1 0
-0.23232126 -0.91982251 -1 0 0 -1 0
-0.7191422 0.70290214 1.0000001 0 -0 1 0
-1 0.0055588069 -0.43242705 -1 -0 -0 0
1 0.12800032 -0.48662058 1 -0 0 0
0.68195456 -0.7053495 1.0000001 0 -0 1 0
0.74853432 0.90657014 1.0000008 0 -0 1 0
-1 0.19054651 0.22194698 -1 -0 -0 0
-1 -0.56512266 -0.41870561 -1 -0 -0 0
-0.99014294 1 0.69974875 0 1 0 0
-1 -0.54818308 0.85484964 -1 -0 -0 0
1 -0.75128007 0.34267929 1 -0 0 0
0.99999946 0.045262422 0.96401721 1 -0 0 0
0.77495199 1 0.44191989 0 1 0 0
-1 -0.29814264 0.18137671 -1 -0 -0 0
1 -0.94767296 -0.67801356 1 -0 0 0
0.98116237 -1 0.28366888 0 -1 0 0
0.9665153 0.19977304 1.0000006 0 -0 1 0
0.9999997 -0.12465218 0.66901654 1 -0 0 0
-0.76748973 0.22538078 -1 0 0 -1 0
-0.37504017 -1 0.58836645 0 -1 0 0
-1 0.514516 -0.35057536 -1 -0 -0 0
-0.47428721 0.81923425 -0.99999982 0 0 -1 0
0.20665975 0.65685034 1.0000006 0 -0 1 0
-0.17362331 1 0.77888697 0 1 0 0
0.4962188 0.55446702 -0.99999946 0 0 -1 0
-0.32335296 -1 0.82096249 0 -1 0 0
1 -0.83807862 0.53247499 1 -0 0 0
0.85534257 1 -0.56438178 0 1 0 0
-0.14458044 1 0.95429915 0 1 0 0
0.85253006 -0.32567564 -0.99999976 0 0 -1 0
0.66984701 0.21191745 -0.99999958 0 0 -1 0
0.40428051 1 -0.88032985 0 1 0 0
1 0.20813504 -0.70616359 1 -0 0 0
-0.46339771 0.61700851 1.0000002 0 -0 1 0
0.64183623 -1 -0.60504454 0 -1 0 0
-0.87112153 -0.20751658 1.0000001 0 -0 1 0
-1 -0.78684253 0.24929951 -1 -0 -0 0
-0.91409266 0.0066542872 1 0 -0 1 0
0.55895442 0.093868889 -0.99999964 0 0 -1 0
-0.70136511 -1 -0.43790448 0 -1 0 0
-0.22689709 1 -0.52529871 0 1 0 0
-0.067391448 1 0.26538348 0 1 0 0
1 0.15268745 -0.47400898 1 -0 0 0
1 0.4505367 -0.57742971 1 -0 0 0
0.6971184 1 0.92772025 0 1 0 0
0.32405436 -0.28807005 1.0000004 0 -0 1 0
-0.81050283 -1 0.0046293731 0 -1 0 0
-0.23988546 1 -0.57741749 0 1 0 0
0.80676985 -1 0.60098845 0 -1 0 0
-0.48558858 -0.22907442 1.0000002 0 -0 1 0
0.5187279 -1 -0.097565196 0 -1 0 0
-1 -0.99481994 -0.066322148 -1 -0 -0 0
-0.45868751 -0.61646056 1.0000002 0 -0 1 0
-0.047780693 1 -0.067529753 0 1 0 0
0.11586222 -1 -0.79635388 0 -1 0 0
-0.32545096 -1 0.56281191 0 -1 0 0
-0.39824283 0.66551828 -0.99999988 0 0 -1 0
-0.17071046 -1 -0.22387134 0 -1 0 0
0.7643441 1 -0.45622447 0 1 0 0
0.36756629 -1 -0.85860109 0 -1 0 0
-1 0.38195142 -0.83965993 -1 -0 -0 0
-0.92339176 1 0.21114014 0 1 0 0
1 -0.47443023 -0.57285345 1 -0 0 0
0.90872914 1 0.13374133 0 1 0 0
-0.86956823 1 -0.047164928 0 1 0 0
-1 -0.31149307 0.3342613 -1 -0 -0 0
0.43141976 -1 0.12457291 0 -1 0 0
-0.95290899 0.058337804 -1 0 0 -1 0
0.69568676 0.11267707 1.0000005 0 -0 1 0
0.99999958 0.6524713 0.21326092 1 -0 0 0
0.45119053 -1 0.86579341 0 -1 0 0
-0.8657462 0.56208926 -1 0 0 -1 0
-0.39639044 -1 -0.92566657 0 -1 0 0
-1 0.43154979 0.74238116 -1 -0 -0 0
-1 0.90725547 0.53490943 -1 -0 -0 0
-1 -0.21768066 -0.22353417 -1 -0 -0 0
0.32775486 -0.088713847 1.0000005 0 -0 1 0
1 0.80796665 -0.85862643 1 -0 0 0
0.99999988 0.78333157 -0.56555134 1 -0 0 0
-0.28689879 0.18307342 1.0000004 0 -0 1 0
-0.42446265 -1 0.077309877 0 -1 0 0
0.9999997 0.98310572 -0.36978784 1 -0 0 0
-0.6974057 -0.30091041 -1 0 0 -1 0
-0.49512878 0.36609799 1.0000002 0 -0 1 0
0.5523628 -0.89555937 -1 0 0 -1 0
0.99999964 -0.17693295 0.87218988 1 -0 0 0
-0.29518124 1 0.72003365 0 1 0 0
-0.73811829 -0.71998131 -1 0 0 -1 0
-1 -0.4274886 0.81555218 -1 -0 -0 0
-0.4753724 -0.74484867 -1 0 0 -1 0
-0.17154336 1 -0.61727536 0 1 0 0
0.99999952 0.60218799 0.36338651 1 -0 0 0
-0.62917054 0.42417115 -1 0 0 -1 0
-0.23134527 -0.28562471 -1 0 0 -1 0
0.80040562 0.22782867 1.0000006 0 -0 1 0
0.071194381 1 0.38791296 0 1 0 0
1 -0.75040865 -0.1423279 1 -0 0 0
0.56688291 1 0.36361134 0 1 0 0
0.48620543 0.69268608 1.0000007 0 -0 1 0
-0.40223813 -1 0.86903185 0 -1 0 0
0.80050021 -0.18562493 1.0000004 0 -0 1 0
-1 -0.746005 0.79516339 -1 -0 -0 0
-0.33323804 1 0.18361075 0 1 0 0
-0.11771073 1 -0.17914747 0 1 0 0
0.9999997 -0.35413513 0.96277195 1 -0 0 0
-0.19037166 -1 0.7293846 0 -1 0 0
0.73096526 -0.9358111 1 0 -0 1 0
1 -0.88463485 0.038903236 1 -0 0 0
-0.017802985 1 -0.45674735 0 1 0 0
-0.34400201 -0.98539263 1 0 -0 1 0
0.0023256256 -0.15159965 -1 0 0 -1 0
0.74247926 -0.59113526 -0.99999994 0 0 -1 0
1 -0.38360476 -0.31607634 1 -0 0 0
-0.68022549 -0.49485645 1.0000001 0 -0 1 0
-0.41971421 -0.96185523 -1 0 0 -1 0
0.38021201 0.39658967 -0.99999958 0 0 -1 0
-1 0.6125977 -0.20507674 -1 -0 -0 0
-1 0.40553409 0.246501 -1 -0 -0 0
-0.049261037 -1 -0.41795281 0 -1 0 0
-0.98808831 -0.81007856 1 0 -0 1 0
0.21797082 -1 -0.86585069 0 -1 0 0
-0.11456953 -1 0.97356367 0 -1 0 0
0.99999982 0.88340437 -0.51378858 1 -0 0 0
-0.47455856 0.37345901 1.0000002 0 -0 1 0
-1 0.11092712 0.38937697 -1 -0 -0 0
-0.76547122 1 0.081333019 0 1 0 0
-1 -0.38393781 0.84208965 -1 -0 -0 0
-0.82105529 -1 -0.60734051 0 -1 0 0
0.65066856 0.56283736 -0.9999994 0 0 -1 0
1 0.99109799 -0.96551186 1 -0 0 0
-0.96890426 -0.38834924 1 0 -0 1 0
-0.47462168 0.42455775 -1 0 0 -1 0
1 0.40258554 -0.39886034 1 -0 0 0
-1 -0.38035285 -0.028987765 -1 -0 -0 0
0.76623714 1 0.30876848 0 1 0 0
-0.85118341 1 -0.78727251 0 1 0 0
-0.19885015 -1 0.58507013 0 -1 0 0
-0.16534683 -1 0.75707442 0 -1 0 0
-0.93120962 -0.89696336 -1 0 0 -1 0
-0.12701845 1 -0.54492623 0 1 0 0
0.55803454 1 -0.69731253 0 1 0 0
0.97319973 0.55461448 1.0000007 0 -0 1 0
-0.78888065 1 -0.48470888 0 1 0 0
-1 -0.90168685 0.99605256 -1 -0 -0 0
-0.95779288 -0.9216221 1 0 -0 1 0
0.32990399 1 0.91950071 0 1 0 0
-1 0.48142904 -0.0037112082 -1 -0 -0 0
0.99999976 0.31701177 0.2120948 1 -0 0 0
0.945871 -1 0.56885827 0 -1 0 0
0.83112764 1 -0.81295532 0 1 0 0
-0.43962944 -1 0.1335935 0 -1 0 0
-0.26392433 0.34705082 1.0000004 0 -0 1 0
0.53293401 -0.68883997 -1 0 0 -1 0
1 -0.87364745 0.47595638 1 -0 0 0
-0.47201648 -1 0.099802002 0 -1 0 0
0.38332528 1 -0.63247293 0 1 0 0
0.38174251 -0.66904759 1.0000001 0 -0 1 0
0.31343427 -0.79489756 1.0000001 0 -0 1 0
-1 0.90221918 0.32219192 -1 -0 -0 0
0.59919786 -0.87730354 -1 0 0 -1 0
-0.63162851 -1 -0.38186389 0 -1 0 0
0.4708747 1 -0.55393368 0 1 0 0
-0.92037171 -0.60032797 -1 0 0 -1 0
-1 0.27210957 -0.61767787 -1 -0 -0 0
-0.80254853 -1 0.06721814 0 -1 0 0
-0.70808196 1 -0.4490056 0 1 0 0
0.54549932 1 0.45094943 0 1 0 0
0.52386826 -1 -0.4049609 0 -1 0 0
0.017033299 0.86906755 1.0000005 0 -0 1 0
-0.30556682 -0.96656257 1 0 -0 1 0
0.9999994 0.34147507 0.78345317 1 -0 0 0
0.84121716 1 0.78259498 0 1 0 0
0.27995083 1 0.73579073 0 1 0 0
-0.0026054899 -1 -0.61833638 0 -1 0 0
-1 0.4121958 0.8327716 -1 -0 -0 0
0.99999982 0.051061861 0.26957583 1 -0 0 0
-1 0.42621508 -0.82313192 -1 -0 -0 0
-0.82971787 0.89756411 -0.99999994 0 0 -1 0
-1 0.94690204 -0.15252155 -1 -0 -0 0
1 0.74669665 -0.99236864 1 -0 0 0
0.80498254 0.8538729 -0.99999917 0 0 -1 0
1 0.0058163633 -0.17664191 1 -0 0 0
0.45644265 -1 0.27911657 0 -1 0 0
1 0.56999439 -0.58493316 1 -0 0 0
0.94125879 -1 -0.32544047 0 -1 0 0
-0.3492417 1 0.43094879 0 1 0 0
-0.8441754 1 0.95829731 0 1 0 0
0.90328652 -1 -0.54128873 0 -1 0 0
0.9999997 -0.088620387 0.64916635 1 -0 0 0
1 -0.90704012 -0.29557902 1 -0 0 0
0.39357191 0.58101946 1.0000007 0 -0 1 0
0.67348665 1 -0.11924754 0 1 0 0
1 -0.072252966 -0.40866968 1 -0 0 0
0.22219348 0.37201768 -0.9999997 0 0 -1 0
-0.24582896 -1 0.93930465 0 -1 0 0
0.96457398 -0.43527961 1.0000002 0 -0 1 0
0.99999982 0.22612496 0.076295719 1 -0 0 0
0.99999964 0.84924513 -0.20129092 1 -0 0 0
-1 0.48467255 0.4771007 -1 -0 -0 0
1 -0.74038249 0.36790472 1 -0 0 0
-0.26579654 1 -0.91618633 0 1 0 0
-0.35720137 -1 0.54137212 0 -1 0 0
1 -0.0050162473 -0.59608442 1 -0 0 0
-0.020642094 1 -0.012728989 0 1 0 0
-0.98648524 -1 -0.38315168 0 -1 0 0
1 0.79924411 -0.78626049 1 -0 0 0
-0.34042501 -1 0.01507261 0 -1 0 0
0.74765497 1 -0.65541631 0 1 0 0
0.99999946 0.25320473 0.75939459 1 -0 0 0
0.9999997 0.70461267 -0.079973549 1 -0 0 0
0.9999994 0.6103766 0.57391578 1 -0 0 0
1 -0.22039168 0.01339999 1 -0 0 0
0.94869852 -1 -0.24874902 0 -1 0 0
-1 -0.25427452 0.8330909 -1 -0 -0 0
-1 -0.73122871 -0.50824887 -1 -0 -0 0
-0.94752491 -1 -0.41361567 0 -1 0 0
-0.76999891 1 -0.29113686 0 1 0 0
-0.59351534 -0.065695442 1.0000002 0 -0 1 0
0.93824196 -1 0.56351697 0 -1 0 0
-0.5941686 -1 0.54519242 0 -1 0 0
0.47088113 0.42996192 -0.99999952 0 0 -1 0
-0.58367932 -0.039201245 1.0000002 0 -0 1 0
-0.34928015 -1 0.2391331 0 -1 0 0
-0.80541557 1 -0.56657475 0 1 0 0
1 -0.5105688 -0.085107408 1 -0 0 0
-0.35972106 -0.045741711 1.0000004 0 -0 1 0
0.081586659 1 -0.76266712 0 1 0 0
0.99999988 -0.37743574 0.61682308 1 -0 0 0
0.99999964 -0.11423488 0.85149443 1 -0 0 0
0.3164418 0.2461139 -0.9999997 0 0 -1 0
0.65482134 0.76287311 -0.99999928 0 0 -1 0
-0.45560476 1 -0.038483731 0 1 0 0
1 0.54570788 -0.5501864 1 -0 0 0
-1 0.13479982 -0.71553057 -1 -0 -0 0
-0.22619225 -0.049893305 1.0000004 0 -0 1 0
-0.12434412 0.68390977 1.0000005 0 -0 1 0
0.97973984 0.47994372 1.0000007 0 -0 1 0
-0.90740383 -1 -0.21585511 0 -1 0 0
0.95226854 0.74422359 1.0000008 0 -0 1 0
0.99999964 0.065841146 0.68723452 1 -0 0 0
1 -0.61286104 -0.9875288 1 -0 0 0
-1 0.12108396 0.52998227 -1 -0 -0 0
1 -0.23305632 -0.029436007 1 -0 0 0
-1 0.37162796 0.53778255 -1 -0 -0 0
1 -0.98860711 0.19823827 1 -0 0 0
0.37335569 1 -0.59261155 0 1 0 0
0.868056 -1 -0.3486217 0 -1 0 0
1 -0.79483914 0.63266283 1 -0 0 0
-1 -0.099348217 0.57822144 -1 -0 -0 0
-1 -0.88063478 0.70916283 -1 -0 -0 0
-0.40633944 -1 -0.87414289 0 -1 0 0
0.93393618 -0.59968215 -0.99999982 0 0 -1 0
0.67633927 1 -0.24966146 0 1 0 0
-1 -0.47942728 -0.78623646 -1 -0 -0 0
0.20274118 -0.32725313 -1 0 0 -1 0
0.12687179 -1 0.18828696 0 -1 0 0
0.66924053 -0.39992061 1.0000002 0 -0 1 0
0.9999994 0.41548952 0.77821523 1 -0 0 0
-0.5575434 0.34588477 -1 0 0 -1 0
0.39822158 1 0.091230936 0 1 0 0
1 0.078438617 -0.78873569 1 -0 0 0
-0.88499647 -1 0.06365332 0 -1 0 0
0.75445229 1 0.2426088 0 1 0 0
0.99999982 0.44951972 -0.055483751 1 -0 0 0
0.10578792 -0.5194537 -1 0 0 -1 0
0.053236838 -0.18832381 1.0000004 0 -0 1 0
0.027540419 -1 -0.50648665 0 -1 0 0
0.084056742 0.51426411 1.0000005 0 -0 1 0
-1 -0.79228687 0.88082856 -1 -0 -0 0
0.99757802 -0.29112881 -0.99999964 0 0 -1 0
0.39695847 1 0.75391811 0 1 0 0
-1 -0.23174383 0.15024596 -1 -0 -0 0
-1 0.75550961 0.21282427 -1 -0 -0 0
0.41045427 -0.68952316 -1 0 0 -1 0
-0.36352631 1 -0.77149916 0 1 0 0
-1 -0.74453592 -0.84008294 -1 -0 -0 0
-0.26265267 1 0.4478102 0 1 0 0
0.14711326 -0.31446445 1.0000004 0 -0 1 0
-1 0.12944619 0.92464292 -1 -0 -0 0
-0.089699641 -0.66872329 1.0000001 0 -0 1 0
1 0.5399977 -0.5889771 1 -0 0 0
-0.34181219 1 0.88926232 0 1 0 0
0.70719051 1 -0.72133976 0 1 0 0
-1 0.31174538 -0.81651473 -1 -0 -0 0
1 -0.56823492 -0.19885936 1 -0 0 0
0.99999982 -0.10254586 0.46305695 1 -0 0 0
-0.14102004 0.36571178 1.0000004 0 -0 1 0
1 -0.39477926 0.25853166 1 -0 0 0
-0.016754981 -0.30362916 -1 0 0 -1 0
-0.12256028 -0.57336563 -1 0 0 -1 0
1 0.21227115 -0.63096154 1 -0 0 0
-0.31818843 -1 0.73606896 0 -1 0 0
-0.10000259 1 0.065221123 0 1 0 0
-1 0.28984281 0.643004 -1 -0 -0 0
0.81527442 -0.90916926 -1 0 0 -1 0
0.99999923 0.8883636 0.69622183 1 -0 0 0
-1 0.89181 0.38864526 -1 -0 -0 0
0.79508328 -0.75937259 -1 0 0 -1 0
0.86294901 1 -0.054029133 0 1 0 0
0.97477216 1 0.31092283 0 1 0 0
0.69995046 -0.2261373 1.0000004 0 -0 1 0
0.20713961 1 0.72973299 0 1 0 0
1 -0.9932344 -0.15813938 1 -0 0 0
0.31108305 -1 -0.23738228 0 -1 0 0
-0.11503735 -0.54392081 1.0000002 0 -0 1 0
0.16100658 1 -0.077155493 0 1 0 0
-1 0.25818115 -0.50860804 -1 -0 -0 0
-0.1353422 -1 0.7975148 0 -1 0 0
-1 -0.037141867 0.47698972 -1 -0 -0 0
-1 0.44213057 0.78891665 -1 -0 -0 0
-1 0.69277352 -0.19326776 -1 -0 -0 0
-1 -0.98785806 0.91825366 -1 -0 -0 0
0.54906684 -1 -0.64621305 0 -1 0 0
-1 -0.57901412 -0.93014729 -1 -0 -0 0
1 -0.72791207 0.64955556 1 -0 0 0
0.63304842 -1 0.84350109 0 -1 0 0
0.99999988 0.2551409 -0.073504947 1 -0 0 0
0.2801449 0.32436851 -0.9999997 0 0 -1 0
-0.64048624 -1 -0.86068296 0 -1 0 0
0.83924741 -0.87340736 -1 0 0 -1 0
1 -0.96741819 -0.57984483 1 -0 0 0
-0.70228279 0.96918052 -0.99999988 0 0 -1 0
-1 0.23606758 -0.15841193 -1 -0 -0 0
0.28266415 0.027652752 1.0000005 0 -0 1 0
-0.75593042 -1 -0.23359376 0 -1 0 0
0.34392452 0.31680483 -0.99999964 0 0 -1 0
0.25964046 0.96310878 -0.9999994 0 0 -1 0
-1 -0.81110525 0.057516534 -1 -0 -0 0
1 0.70046777 -0.93489325 1 -0 0 0
0.21103069 -0.81471878 -1 0 0 -1 0
-0.5520727 -1 -0.88543838 0 -1 0 0
-0.4408507 1 -0.82635868 0 1 0 0
-0.29171529 1 0.46931997 0 1 0 0
-0.24071199 -0.10907625 -1 0 0 -1 0
0.77880251 1 -0.33271098 0 1 0 0
-1 -0.46435109 -0.18707684 -1 -0 -0 0
1 -0.60381246 0.6172359 1 -0 0 0
0.011059099 1 0.85445935 0 1 0 0
-0.47008502 -1 0.93652582 0 -1 0 0
-1 -0.60781687 0.97338045 -1 -0 -0 0
0.55469656 0.35178179 1.0000006 0 -0 1 0
-0.34532166 0.84109855 1.0000004 0 -0 1 0
-0.20668426 -0.94863945 1 0 -0 1 0
0.2082853 -0.50140715 -1 0 0 -1 0
-0.71561027 0.24882564 -1 0 0 -1 0
0.44601151 -1 -0.021036562 0 -1 0 0
0.98881203 -0.95254248 -1 0 0 -1 0
0.3980954 0.48309147 1.0000007 0 -0 1 0
0.30014968 1 -0.2211262 0 1 0 0
0.34633362 -0.17538825 -0.99999994 0 0 -1 0
-0.096042231 -1 0.65718317 0 -1 0 0
-0.54806894 1 0.74296814 0 1 0 0
1 -0.13580777 -0.4550724 1 -0 0 0
0.84746355 0.83309031 -0.99999917 0 0 -1 0
0.91796571 -0.16765578 -0.99999964 0 0 -1 0
-0.99469489 0.55099732 1 0 -0 1 0
1 -0.38035637 -0.78977954 1 -0 0 0
1 -0.067059562 -0.0012449427 1 -0 0 0
-0.85966104 -0.90568048 -1 0 0 -1 0
-1 -0.68553287 -0.56393433 -1 -0 -0 0
-1 0.086492524 0.56242979 -1 -0 -0 0
-1 0.058708731 0.70313436 -1 -0 -0 0
0.9999997 0.065623365 0.55845845 1 -0 0 0
-0.52300978 -1 -0.86830539 0 -1 0 0
-0.79622376 -1 -0.0039388253 0 -1 0 0
0.2567547 1 -0.77907741 0 1 0 0
-1 -0.92801511 -0.92204595 -1 -0 -0 0
-0.80958951 -1 0.55555743 0 -1 0 0
-0.83727658 0.26909176 1.0000001 0 -0 1 0
0.064544238 0.45643765 1.0000005 0 -0 1 0
-0.96985102 0.43709627 1 0 -0 1 0
-1 -0.58343226 -0.6707499 -1 -0 -0 0
-0.29184556 0.33996469 -1 0 0 -1 0
-1 -0.82226092 -0.43823957 -1 -0 -0 0
-0.094909556 1 0.086974189 0 1 0 0
-0.76090759 -0.42053941 -1 0 0 -1 0
0.81729341 -1 0.063183911 0 -1 0 0
-0.16266939 1 0.67643642 0 1 0 0
0.52756542 -1 -0.024175594 0 -1 0 0
-0.030355027 1 -0.91022265 0 1 0 0
-0.58179313 0.56539726 -1 0 0 -1 0
-0.40077031 0.23139329 1.0000002 0 -0 1 0
-0.711007 -0.46115574 -1 0 0 -1 0
1 -0.81303859 -0.93480396 1 -0 0 0
-0.35478461 0.17467068 -1 0 0 -1 0
-0.76810491 1 0.33275998 0 1 0 0
0.91045833 -0.0080925236 1.0000005 0 -0 1 0
-0.81630898 -1 0.61743313 0 -1 0 0
0.99999976 -0.13610974 0.57611352 1 -0 0 0
0.29634801 0.02591232 1.0000005 0 -0 1 0
-1 -0.46847373 -0.89361835 -1 -0 -0 0
0.072472185 1 0.28578153 0 1 0 0
0.93647522 -1 0.60134023 0 -1 0 0
1 -0.52624059 -0.56356913 1 -0 0 0
-0.61974657 -0.57050675 1.0000002 0 -0 1 0
1 0.53611141 -0.5894528 1 -0 0 0
0.67697012 -0.48181817 1.0000002 0 -0 1 0
0.36002496 1 -0.11426874 0 1 0 0
0.99999976 -0.061336447 0.52108949 1 -0 0 0
-0.34221604 -0.76828742 -1 0 0 -1 0
-0.91546041 -0.65166247 1 0 -0 1 0
0.82414871 -0.70601231 1.0000001 0 -0 1 0
0.89741707 0.80108243 1.0000008 0 -0 1 0
0.65485168 0.2535027 -0.99999952 0 0 -1 0
-1 -0.21148896 -0.29352996 -1 -0 -0 0
-0.98176157 0.6681025 -1 0 0 -1 0
0.86070961 1 -0.74489075 0 1 0 0
0.99999928 0.82516831 0.61602819 1 -0 0 0
-0.04744776 0.42750794 1.0000005 0 -0 1 0
-0.16845348 -1 -0.022300782 0 -1 0 0
-0.2479343 -0.9551385 -1 0 0 -1 0
-0.60408759 -1 -0.14519252 0 -1 0 0
0.67798465 -0.56607711 -0.99999994 0 0 -1 0
-0.9207418 1 0.55067372 0 1 0 0
-0.44753629 -0.46056983 -1 0 0 -1 0
0.63162088 1 0.48712784 0 1 0 0
0.80363923 0.58211344 1.0000007 0 -0 1 0
-0.52925152 1 -0.10011615 0 1 0 0
-0.85275137 0.43129414 -1 0 0 -1 0
0.35594237 1 0.25936261 0 1 0 0
-1 -0.84748149 -0.53142846 -1 -0 -0 0
0.99999976 0.45692533 0.0013691386 1 -0 0 0
-0.3293485 -0.68674755 1.0000001 0 -0 1 0
-1 0.65229392 -0.75602549 -1 -0 -0 0
0.652942 -0.34512255 1.0000004 0 -0 1 0
-0.63647181 0.61053199 1.0000001 0 -0 1 0
-1 0.87343872 0.14452142 -1 -0 -0 0
-0.25181484 0.1563096 -1 0 0 -1 0
-0.093617491 -0.26115963 -1 0 0 -1 0
-1 0.41392243 0.72097844 -1 -0 -0 0
1 -0.35033002 0.1561968 1 -0 0 0
-0.82255024 1 -0.36320707 0 1 0 0
0.2975271 0.8801493 1.0000006 0 -0 1 0
-1 0.5239144 -0.032986056 -1 -0 -0 0
0.0086886929 -0.96011251 1 0 -0 1 0
0.72253966 -0.54906774 1.0000002 0 -0 1 0
-0.89485621 -0.33110136 -1 0 0 -1 0
0.050733104 1 -0.64867568 0 1 0 0
0.042871222 0.42047849 -0.99999976 0 0 -1 0
-0.83846301 0.51671547 1.0000001 0 -0 1 0
0.55194801 0.15196326 1.0000006 0 -0 1 0
0.99999952 0.072709173 0.82054579 1 -0 0 0
0.66794562 0.16991757 -0.99999958 0 0 -1 0
-0.89660513 0.74584973 -1 0 0 -1 0
1 0.43014824 -0.55422527 1 -0 0 0
0.97256202 -0.17085744 1.0000004 0 -0 1 0
0.57332265 -0.58923841 1.0000002 0 -0 1 0
-1 -0.75078225 0.14848587 -1 -0 -0 0
-1 0.07638184 -0.82594067 -1 -0 -0 0
-0.89451844 -1 0.26260677 0 -1 0 0
0.41545409 -0.039698161 1.0000005 0 -0 1 0
-1 0.93006307 0.42036113 -1 -0 -0 0
0.094411537 -0.81483668 -1 0 0 -1 0
-0.17367288 0.057824854 -1 0 0 -1 0
0.54034632 -1 0.60587013 0 -1 0 0
0.99999952 0.855829 0.028811894 1 -0 0 0
0.50465882 -1 0.74949098 0 -1 0 0
-1 0.017115889 -0.68385661 -1 -0 -0 0
-0.031174732 -0.98614031 -1 0 0 -1 0
0.80536026 -1 0.972601 0 -1 0 0
-0.8597455 1 0.64915812 0 1 0 0
-0.87955266 1 0.68182784 0 1 0 0
0.23164956 0.50894481 1.0000006 0 -0 1 0
0.76708812 -0.21711698 -0.9999997 0 0 -1 0
0.9999997 0.31183922 0.2197666 1 -0 0 0
-0.30134299 -1 -0.46993685 0 -1 0 0
0.11511773 -1 0.77837217 0 -1 0 0
-0.41757667 1 -0.70224971 0 1 0 0
0.88165689 -0.10345203 1.0000005 0 -0 1 0
-1 -0.91504902 -0.85633522 -1 -0 -0 0
-0.75410181 0.57298982 1.0000001 0 -0 1 0
-1 -0.73216236 -0.81483436 -1 -0 -0 0
-0.050092384 0.92807621 1.0000005 0 -0 1 0
-0.64500886 1 0.081257656 0 1 0 0
1 -0.96525556 0.19335826 1 -0 0 0
-1 -0.16128562 -0.11120861 -1 -0 -0 0
-1 0.35835528 0.84472412 -1 -0 -0 0
-1 0.67996573 0.38534129 -1 -0 -0 0
0.9999997 0.81735313 -0.21556827 1 -0 0 0
0.7117427 1 -0.014890182 0 1 0 0
-0.018071156 -0.73774379 1.0000001 0 -0 1 0
-0.6154533 0.13416702 1.0000002 0 -0 1 0
-0.41612533 -1 -0.5903489 0 -1 0 0
-1 0.98167002 0.48132271 -1 -0 -0 0
0.99999952 0.15378544 0.82669026 1 -0 0 0
-1 0.71465808 0.58530116 -1 -0 -0 0
-0.67175454 -1 -0.75561208 0 -1 0 0
-1 0.3175624 0.82756597 -1 -0 -0 0
-0.69336951 -1 -0.39911392 0 -1 0 0
-0.20772927 -0.50942719 1.0000002 0 -0 1 0
0.83350366 0.54250538 1.0000007 0 -0 1 0
-1 -0.62295097 -0.44001764 -1 -0 -0 0
-0.75231045 1 -0.28618014 0 1 0 0
0.80383152 0.20011821 -0.99999946 0 0 -1 0
0.96907401 -0.80241358 1.0000001 0 -0 1 0
0.99999952 0.58608776 0.33605343 1 -0 0 0
0.59772921 -0.36231026 1.0000004 0 -0 1 0
0.69363368 -0.40054983 1.0000002 0 -0 1 0
-0.50774813 0.11344139 -1 0 0 -1 0
1 0.033905946 -0.54896629 1 -0 0 0
0.99999976 0.89876276 -0.41264883 1 -0 0 0
0.9999997 0.13009077 0.47113964 1 -0 0 0
0.9999997 -0.22568771 0.86680347 1 -0 0 0
-0.54954231 -0.95530951 -1 0 0 -1 0
0.77026045 0.46255445 -0.9999994 0 0 -1 0
-0.070540972 -1 -0.30026948 0 -1 0 0
-1 -0.26182809 0.68666971 -1 -0 -0 0
-0.56796521 -1 0.22986482 0 -1 0 0
1 -0.57344341 -0.22420412 1 -0 0 0
-0.98129177 -1 -0.37732142 0 -1 0 0
-1 0.94022357 0.88378525 -1 -0 -0 0
-0.95050889 1 -0.24163458 0 1 0 0
-1 0.92996407 -0.18092015 -1 -0 -0 0
-1 0.70919359 -0.68957734 -1 -0 -0 0
-0.87663895 1 0.72413009 0 1 0 0
-0.13354068 1 0.60406154 0 1 0 0
0.48326474 -0.28021809 1.0000004 0 -0 1 0
-0.23766585 -1 -0.032053921 0 -1 0 0
-0.95973694 1 -0.10449561 0 1 0 0
-1 -0.80467033 -0.10093605 -1 -0 -0 0
0.90227407 0.43490806 1.0000007 0 -0 1 0
0.88488513 -1 0.92591482 0 -1 0 0
-0.47577935 1 0.17398164 0 1 0 0
0.76484478 0.52386266 1.0000007 0 -0 1 0
0.62172264 1 0.13955468 0 1 0 0
-1 0.58867818 0.39594749 -1 -0 -0 0
-1 -0.14319785 0.59755629 -1 -0 -0 0
-0.8990081 -0.70498401 -1 0 0 -1 0
1 0.84725422 -0.99344546 1 -0 0 0
0.20385474 -1 0.016219998 0 -1 0 0
0.1324665 1 0.16395047 0 1 0 0
0.9999994 0.58100349 0.57187515 1 -0 0 0
0.00215752 -0.74138874 -1 0 0 -1 0
1 0.047401592 -0.48994756 1 -0 0 0
-0.7584964 0.57966739 -1 0 0 -1 0
1 0.64841616 -0.60008121 1 -0 0 0
0.34037656 -1 -0.19230376 0 -1 0 0
0.53249151 1 0.14192913 0 1 0 0
-1 -0.46341726 0.76104558 -1 -0 -0 0
0.29881093 -0.34442616 -1 0 0 -1 0
0.65439582 1 -0.21884412 0 1 0 0
0.9999997 -0.079674028 0.68151176 1 -0 0 0
0.39138606 -1 -0.47449973 0 -1 0 0
0.34605926 -1 0.44591159 0 -1 0 0
-0.89512825 1 -0.38235936 0 1 0 0
0.99999946 0.082364194 0.93488616 1 -0 0 0
-1 -0.90423048 -0.69445157 -1 -0 -0 0
0.58555853 -1 0.73022741 0 -1 0 0
0.42830572 0.55589879 1.0000007 0 -0 1 0
-0.50184774 -0.1630441 -1 0 0 -1 0
-1 -0.50279069 -0.0938605 -1 -0 -0 0
0.3131502 -1 -0.73794103 0 -1 0 0
0.99999994 -0.89100492 0.99559778 1 -0 0 0
0.061335471 -1 -0.27243343 0 -1 0 0
0.041953381 -0.40588471 -1 0 0 -1 0
-0.80319452 1 0.71428037 0 1 0 0
-1 0.3817578 0.96910977 -1 -0 -0 0
-1 -0.56132293 -0.28461412 -1 -0 -0 0
1 -0.066613831 -0.64332014 1 -0 0 0
-0.59958661 -1 0.1246787 0 -1 0 0
-1 0.048761081 0.32124421 -1 -0 -0 0
0.13245447 -0.16772741 -1 0 0 -1 0
-0.43461683 -1 -0.77073807 0 -1 0 0
-0.46321589 0.68239737 1.0000002 0 -0 1 0
0.24241701 -0.69391376 -1 0 0 -1 0
-0.28913781 0.23330954 1.0000004 0 -0 1 0
0.99949014 1 0.032128509 0 1 0 0
1 -0.60710633 -0.344383 1 -0 0 0
-1 -0.056116644 0.24870017 -1 -0 -0 0
0.56795979 0.73211718 -0.99999934 0 0 -1 0
0.36258003 0.48351344 1.0000006 0 -0 1 0
0.99999988 0.066538796 0.11641726 1 -0 0 0
-0.26273102 1 0.32361692 0 1 0 0
0.066616841 1 0.86813313 0 1 0 0
0.9999997 -0.18023236 0.82063138 1 -0 0 0
-0.97968495 -0.95225102 -1 0 0 -1 0
0.99999958 0.52262384 0.26588634 1 -0 0 0
-0.62036866 1 0.26797464 0 1 0 0
1 -0.66472083 0.10873795 1 -0 0 0
-0.77375895 0.51014012 1.0000001 0 -0 1 0
0.54209453 -1 0.40432411 0 -1 0 0
-0.10396868 -1 -0.80419421 0 -1 0 0
0.99999982 0.73106003 -0.33799267 1 -0 0 0
-0.84576941 -0.56949985 -1 0 0 -1 0
0.37628496 -0.39707956 1.0000002 0 -0 1 0
-0.98755729 -1 0.70859039 0 -1 0 0
0.69707328 -0.58918339 1.0000002 0 -0 1 0
-0.0029856157 -1 -0.49684656 0 -1 0 0
-1 0.12692675 -0.38482189 -1 -0 -0 0
0.82034618 0.90543628 1.0000008 0 -0 1 0
-0.86782974 1 0.34310225 0 1 0 0
0.99999976 0.17688039 0.24608819 1 -0 0 0
-1 0.5342477 0.83269268 -1 -0 -0 0
0.60951787 -0.89166868 -1 0 0 -1 0
-1 -0.64161164 -0.79188067 -1 -0 -0 0
-1 -0.96830928 0.34257361 -1 -0 -0 0
-0.76721311 1 -0.50695032 0 1 0 0
0.26890722 0.56511986 1.0000006 0 -0 1 0
0.74361145 0.37851045 -0.9999994 0 0 -1 0
0.23687871 0.63804328 1.0000006 0 -0 1 0
0.99999923 0.91407824 0.65063298 1 -0 0 0
0.095629312 -1 -0.79730457 0 -1 0 0
0.94717306 0.91533452 -0.99999905 0 0 -1 0
0.68995249 0.27800396 -0.99999952 0 0 -1 0
0.024534078 0.23127992 1.0000005 0 -0 1 0
-0.97592252 -1 0.1640871 0 -1 0 0
0.44574729 -0.87874329 1 0 -0 1 0
-1 -0.50839597 0.11950465 -1 -0 -0 0
-0.58129567 -1 -0.21908726 0 -1 0 0
-0.3516545 -0.52562726 -1 0 0 -1 0
-0.9707464 1 -0.69776314 0 1 0 0
-0.81471211 -0.39849266 1.0000001 0 -0 1 0
1 -0.27073613 0.19391224 1 -0 0 0
-1 0.44094974 -0.48330194 -1 -0 -0 0
0.88256276 1 0.75273073 0 1 0 0
-0.84063494 0.69250071 -1 0 0 -1 0
-0.38319021 -1 -0.11486297 0 -1 0 0
-1 -0.37797186 -0.049254004 -1 -0 -0 0
0.3253012 0.81582272 1.0000006 0 -0 1 0
0.99999964 0.052653339 0.62247938 1 -0 0 0
-0.88064992 0.73298925 -1 0 0 -1 0
-0.75109428 -0.18602093 1.0000001 0 -0 1 0
0.99999976 -0.48800033 0.99002284 1 -0 0 0
-0.92433619 1 0.16247745 0 1 0 0
-1 -0.21050888 0.21876623 -1 -0 -0 0
0.30324531 1 0.023281403 0 1 0 0
0.71282762 0.21665469 1.0000006 0 -0 1 0
-1 -0.74383301 -0.65442413 -1 -0 -0 0
0.99999905 0.95731378 0.87549746 1 -0 0 0
-0.40573665 -0.61865574 1.0000002 0 -0 1 0
0.77444303 -0.15404941 1.0000004 0 -0 1 0
-0.48384157 1 -0.040661674 0 1 0 0
0.89061803 -0.50756532 -0.99999982 0 0 -1 0
-0.14976779 -1 -0.080726452 0 -1 0 0
-0.34985247 -1 -0.16258033 0 -1 0 0
1 -0.77798605 -0.56569612 1 -0 0 0
0.20743929 1 0.88437313 0 1 0 0
0.72234398 0.16760634 1.0000006 0 -0 1 0
0.9999997 0.43536001 0.20083779 1 -0 0 0
-0.41811532 -0.72773296 -1 0 0 -1 0
-0.47661692 -1 0.082191609 0 -1 0 0
-0.12211728 -1 0.56771272 0 -1 0 0
0.99999976 0.287682 0.20632187 1 -0 0 0
0.48930284 -0.74088007 -1 0 0 -1 0
-0.24360757 -1 0.27200308 0 -1 0 0
0.37174982 1 0.91029888 0 1 0 0
0.73506922 -1 -0.27703002 0 -1 0 0
-1 -0.37783045 -0.42585677 -1 -0 -0 0
-0.56543428 0.98891896 1.0000002 0 -0 1 0
-0.14511375 1 -0.19414197 0 1 0 0
-0.49584398 -0.36145589 -1 0 0 -1 0
-0.043132156 -0.7793954 -1 0 0 -1 0
0.91288638 1 -0.97941875 0 1 0 0
-0.77188963 0.31985658 -1 0 0 -1 0
-1 -0.22708519 -0.15224388 -1 -0 -0 0
0.99999988 -0.1639342 0.3679665 1 -0 0 0
0.076441422 1 -0.24232002 0 1 0 0
-0.37778896 -0.87558258 1 0 -0 1 0
1 -0.70677501 0.15943058 1 -0 0 0
0.22294205 1 0.48350272 0 1 0 0
-0.7226817 0.4281956 -1 0 0 -1 0
-1 0.22597887 -0.09846662 -1 -0 -0 0
-0.72760707 -1 -0.57843125 0 -1 0 0
0.53054804 0.46406654 1.0000007 0 -0 1 0
0.99999988 0.78254735 -0.55143929 1 -0 0 0
-0.25124624 1 0.22669514 0 1 0 0
0.45078847 1 -0.2927497 0 1 0 0
0.95927501 0.50671923 1.0000007 0 -0 1 0
-0.53585708 0.14987801 -1 0 0 -1 0
0.3021138 -0.48040375 -1 0 0 -1 0
0.6367802 -0.0015449855 -0.9999997 0 0 -1 0
-0.76174378 0.78762341 1.0000001 0 -0 1 0
0.99999988 -0.33353677 0.57613444 1 -0 0 0
-1 0.6499092 -0.6734733 -1 -0 -0 0
-0.25884542 -1 -0.039192121 0 -1 0 0
-0.53674859 0.67006141 -0.99999994 0 0 -1 0
-0.35671833 -0.71914488 1.0000001 0 -0 1 0
-1 -0.44663802 0.091878682 -1 -0 -0 0
1 -0.95426071 -0.52368188 1 -0 0 0
0.034532659 1 -0.41462141 0 1 0 0
0.61722565 -1 -0.10884326 0 -1 0 0
-0.68278426 1 0.32157835 0 1 0 0
-0.25697973 -0.30928469 1.0000004 0 -0 1 0
0.74562353 0.55988383 -0.99999934 0 0 -1 0
-0.79866022 -0.18753451 1.0000001 0 -0 1 0
0.54929054 0.52439314 -0.99999946 0 0 -1 0
0.99999994 0.89074141 -0.73710752 1 -0 0 0
-1 0.13537571 0.46404928 -1 -0 -0 0
-1 0.56312931 -0.2265299 -1 -0 -0 0
-1 0.54460317 0.41622174 -1 -0 -0 0
1 -0.20343155 -0.61356437 1 -0 0 0
-0.96136469 1 -0.51797569 0 1 0 0
0.9999997 -0.28287145 0.8412869 1 -0 0 0
-1 -0.63193774 0.60920852 -1 -0 -0 0
-0.72711289 -0.80321354 -1 0 0 -1 0
0.9999997 0.87736529 -0.32496819 1 -0 0 0
-0.41728976 0.80623394 -0.99999982 0 0 -1 0
0.60547775 -1 -0.098879665 0 -1 0 0
-1 -0.38378507 -0.34040871 -1 -0 -0 0
-0.516536 -0.37401333 1.0000002 0 -0 1 0
0.85571176 -1 -0.56380099 0 -1 0 0
0.74337214 -1 -0.72860116 0 -1 0 0
0.97891748 -1 0.84556168 0 -1 0 0
1 -0.19468869 -0.2475487 1 -0 0 0
-1 -0.90398914 -0.75064611 -1 -0 -0 0
0.99999911 0.82389027 0.90528154 1 -0 0 0
-0.7709437 -0.94810504 -1 0 0 -1 0
0.45441982 1 0.40715528 0 1 0 0
-0.42853299 0.45375124 1.0000002 0 -0 1 0
-1 -0.67327231 -0.63911295 -1 -0 -0 0
-0.98468345 1 -0.61269468 0 1 0 0
0.49394143 -0.83096141 1.0000001 0 -0 1 0
1 0.44961831 -0.63383132 1 -0 0 0
-0.94594407 0.53233474 -1 0 0 -1 0
-0.52212298 -1 0.06517861 0 -1 0 0
-0.015758732 -0.25857586 -1 0 0 -1 0
0.59486127 0.57190347 -0.9999994 0 0 -1 0
-1 -0.36026525 0.68169791 -1 -0 -0 0
-1 0.154392 0.65017456 -1 -0 -0 0
1 -0.96588594 0.67550963 1 -0 0 0
0.2842932 0.4467591 1.0000006 0 -0 1 0
0.91525084 1 -0.067709953 0 1 0 0
0.81923491 0.71455514 1.0000008 0 -0 1 0
-0.21916021 -0.64172554 1.0000001 0 -0 1 0
0.79439396 -1 -0.98963553 0 -1 0 0
0.9999994 0.22098327 0.94357842 1 -0 0 0
0.48958763 -1 0.78300774 0 -1 0 0
0.19161221 -0.37654674 1.0000002 0 -0 1 0
0.090141639 -1 0.38400069 0 -1 0 0
-0.56560069 -0.60024685 -1 0 0 -1 0
0.7897653 -0.62176728 1.0000002 0 -0 1 0
-0.42816755 0.46363592 1.0000002 0 -0 1 0
-1 -0.81180161 -0.23837541 -1 -0 -0 0
-1 0.44995835 0.082850412 -1 -0 -0 0
-0.77034229 -0.91277695 1 0 -0 1 0
-0.89785671 -1 -0.73251438 0 -1 0 0
1 -0.073645309 -0.93306273 1 -0 0 0
-1 0.76807356 0.42622486 -1 -0 -0 0
0.37930387 0.35103795 1.0000006 0 -0 1 0
0.65583146 -0.21519113 -0.99999976 0 0 -1 0
-0.53634471 -0.91436541 -1 0 0 -1 0
-0.75050724 1 -0.094812989 0 1 0 0
-0.62692052 1 0.32318237 0 1 0 0
1 -0.0014655036 -0.9490118 1 -0 0 0
-0.69969493 1 0.48828065 0 1 0 0
-0.33080882 1 0.69154382 0 1 0 0
0.51433402 -1 0.28714666 0 -1 0 0
1 -0.58093971 0.63827199 1 -0 0 0
0.92588735 -1 0.4825778 0 -1 0 0
-0.69175667 0.26895812 1.0000001 0 -0 1 0
0.16564149 -0.89708501 1 0 -0 1 0
-1 -0.34843156 -0.56220019 -1 -0 -0 0
0.43361539 -1 0.84612322 0 -1 0 0
-1 0.069697365 -0.47335336 -1 -0 -0 0
-1 0.62674522 0.87644535 -1 -0 -0 0
0.99999994 0.8643685 -0.70359313 1 -0 0 0
-0.35269687 -0.3152529 1.0000004 0 -0 1 0
-0.26200509 -0.77949268 1.0000001 0 -0 1 0
0.9999997 -0.039861191 0.57505769 1 -0 0 0
-0.0080547268 0.38383958 -0.99999982 0 0 -1 0
-1 0.20771913 0.58138174 -1 -0 -0 0
0.68792617 1 -0.096876375 0 1 0 0
-1 -0.25063998 0.3553966 -1 -0 -0 0
0.72061974 -1 -0.88170636 0 -1 0 0
0.99999994 0.41629428 -0.32808131 1 -0 0 0
-0.25426081 0.19345817 1.0000004 0 -0 1 0
1 -0.52043992 -0.97218442 1 -0 0 0
0.99999964 -0.24871476 0.95956469 1 -0 0 0
0.28103548 -1 -0.13867104 0 -1 0 0
1 0.55892205 -0.71998727 1 -0 0 0
-0.34715521 -1 0.92259091 0 -1 0 0
-0.65886968 -0.064291969 1.0000001 0 -0 1 0
1 -0.70091367 -0.86472493 1 -0 0 0
-1 0.59933931 0.95775253 -1 -0 -0 0
0.11722701 -0.28291494 -1 0 0 -1 0
0.36300728 -0.47013703 -1 0 0 -1 0
0.59462768 -0.49324167 1.0000002 0 -0 1 0
-1 -0.19331357 0.53819734 -1 -0 -0 0
1 -0.94272745 -0.62470591 1 -0 0 0
-0.95782381 0.93319523 -1 0 0 -1 0
-1 -0.99786776 -0.83890492 -1 -0 -0 0
0.99999994 0.13622543 0.010789112 1 -0 0 0
-0.29709446 -0.55975878 1.0000002 0 -0 1 0
0.99999934 0.79273069 0.50507516 1 -0 0 0
1 0.82085013 -0.85946012 1 -0 0 0
0.53187746 -1 -0.18259037 0 -1 0 0
-1 -0.65496308 0.82966232 -1 -0 -0 0
0.092350863 0.7667501 -0.99999958 0 0 -1 0
0.76024419 0.815723 -0.99999923 0 0 -1 0
-1 0.21155126 -0.75370055 -1 -0 -0 0
-0.36152264 -1 -0.69423121 0 -1 0 0
-0.44807044 -0.035951942 -1 0 0 -1 0
-0.91569149 1 0.38460517 0 1 0 0
0.73580188 -1 0.8786602 0 -1 0 0
1 0.77890933 -0.85553092 1 -0 0 0
0.72067922 1 -0.22038703 0 1 0 0
0.52180976 -0.41638386 1.0000002 0 -0 1 0
-1 0.96686751 -0.2418576 -1 -0 -0 0
0.18978736 -1 -0.62620121 0 -1 0 0
-0.61231083 1 -0.21887989 0 1 0 0
-0.3308647 -1 -0.27657479 0 -1 0 0
-1 -0.54309624 -0.63804704 -1 -0 -0 0
0.99999917 0.8433944 0.78355694 1 -0 0 0
0.042670578 -1 -0.64975268 0 -1 0 0
0.46771884 1 0.91238427 0 1 0 0
-0.12407202 -1 -0.66128486 0 -1 0 0
0.9999997 0.05323229 0.48719466 1 -0 0 0
0.49728337 1 -0.20588353 0 1 0 0
-0.80698663 -1 -0.67814094 0 -1 0 0
0.85408282 0.43590298 1.0000007 0 -0 1 0
1 0.16420875 -0.38226762 1 -0 0 0
-0.0094549954 -1 0.91104418 0 -1 0 0
-0.73472285 -0.21742697 -1 0 0 -1 0
0.19396123 1 0.3293342 0 1 0 0
0.3361772 0.53342277 -0.99999958 0 0 -1 0
0.99999982 0.19758606 0.19563179 1 -0 0 0
-1 -0.52117789 0.93529493 -1 -0 -0 0
0.90192026 0.4880006 1.0000007 0 -0 1 0
-1 -0.33094296 -0.51067895 -1 -0 -0 0
-0.49406683 -1 0.52319127 0 -1 0 0
-1 -0.5627268 -0.6875208 -1 -0 -0 0
0.10678516 0.15501383 -0.99999988 0 0 -1 0
-0.39985704 -1 -0.70029747 0 -1 0 0
-1 -0.06126732 0.44804379 -1 -0 -0 0
-0.069595091 1 0.30816096 0 1 0 0
-1 -0.040387262 -0.17088224 -1 -0 -0 0
-1 -0.62357175 -0.0058292034 -1 -0 -0 0
-0.65972942 0.99731857 1.0000001 0 -0 1 0
0.59316373 -1 0.15059821 0 -1 0 0
0.75546479 1 -0.61341208 0 1 0 0
-1 -0.37404546 -0.043905068 -1 -0 -0 0
1 -0.89057809 0.71179748 1 -0 0 0
-1 0.62338239 -0.81107533 -1 -0 -0 0
0.99999923 0.58052945 0.89090699 1 -0 0 0
-0.76294577 -1 -0.25524971 0 -1 0 0
-0.1150282 1 0.55367529 0 1 0 0
-1 0.69706166 0.12134009 -1 -0 -0 0
-0.80659443 0.59284681 1.0000001 0 -0 1 0
0.6012674 0.89743102 -0.99999923 0 0 -1 0
0.89951605 0.07443592 1.0000005 0 -0 1 0
0.96279114 0.40631247 -0.99999928 0 0 -1 0
0.9999997 -0.41780508 0.95052493 1 -0 0 0
-0.49989194 -1 0.88434482 0 -1 0 0
-1 0.5925656 -0.8423326 -1 -0 -0 0
-0.45916799 -1 0.17869224 0 -1 0 0
-0.50388432 -0.59092194 -1 0 0 -1 0
0.99999928 0.87250495 0.54060519 1 -0 0 0
-1 -0.55644697 -0.23962173 -1 -0 -0 0
1 -0.92584115 -0.1576674 1 -0 0 0
0.9999997 -0.018723207 0.66494364 1 -0 0 0
0.87814873 1 -0.31580833 0 1 0 0
-0.34030902 0.91420871 -0.9999997 0 0 -1 0
1 -0.26811177 -0.49326068 1 -0 0 0
-0.52515703 0.69709009 1.0000002 0 -0 1 0
-0.39315107 -1 0.61349934 0 -1 0 0
-1 -0.11096387 0.08084254 -1 -0 -0 0
0.28938898 1 -0.91401118 0 1 0 0
0.64569944 0.95355093 1.0000008 0 -0 1 0
-1 -0.16207513 -0.84126395 -1 -0 -0 0
0.79559362 0.66271371 -0.99999928 0 0 -1 0
0.69895524 1 0.6660943 0 1 0 0
0.96578413 1 0.74131256 0 1 0 0
0.17829016 1 0.83070868 0 1 0 0
1 -0.31888792 -0.91662753 1 -0 0 0
-0.86808586 1 0.21052031 0 1 0 0
0.70548433 -1 0.14037126 0 -1 0 0
-0.98499805 0.63349962 -1 0 0 -1 0
-1 -0.3617166 0.48050755 -1 -0 -0 0
0.4158141 -1 0.86797148 0 -1 0 0
1 0.48677897 -0.5840953 1 -0 0 0
1 -0.22592762 0.052310359 1 -0 0 0
