# .PCD v0.7 - Point Cloud Data file format
VERSION 0.7
FIELDS x y z normal_x normal_y normal_z curvature
SIZE 4 4 4 4 4 4 4
TYPE F F F F F F F
COUNT 1 1 1 1 1 1 1
WIDTH 1319
HEIGHT 1
VIEWPOINT 0 0 0 1 0 0 0
POINTS 1319
DATA ascii
0.16353026 0.21039604 0.5 0 0 1 0
0.46827871 0.1975826 -0.5 0 0 -1 0
0.48351938 -0.5 -0.32026318 0 -1 0 0
-0.5 0.058011368 -0.43433937 -1 0 0 0
-0.46093583 -0.5 0.051479686 0 -1 0 0
0.34191146 0.5 0.33994776 0 1 0 0
-0.5 0.14818229 -0.14798471 -1 0 0 0
0.5 -0.4510299 -0.062744625 1 0 0 0
-0.5 -0.090536676 0.24049197 -1 0 0 0
0.24276416 0.5 -0.047314208 0 1 0 0
-0.2530356 -0.23075382 -0.5 0 0 -1 0
-0.20449203 0.5 -0.10248205 0 1 0 0
-0.5 0.21347791 -0.48561829 -1 0 0 0
0.4299559 -0.19348346 -0.5 0 0 -1 0
0.14161479 0.16672765 0.5 0 0 1 0
-0.24877743 0.5 -0.30817163 0 1 0 0
0.5 -0.11511637 -0.37600505 1 0 0 0
0.20714773 0.5 0.46804076 0 1 0 0
0.37556377 0.10894363 0.5 0 0 1 0
-0.5 -0.27457961 0.17431578 -1 0 0 0
-0.36988807 -0.29141134 -0.5 0 0 -1 0
0.12206926 0.5 -0.10729283 0 1 0 0
-0.5 -0.45829535 -0.31055266 -1 0 0 0
-0.19546208 -0.13121058 0.5 0 0 1 0
0.5 0.47221109 0.42421824 1 0 0 0
-0.3395859 0.41999042 -0.5 0 0 -1 0
0.5 -0.47977185 -0.13307075 1 0 0 0
0.032579646 -0.4338702 0.5 0 0 1 0
0.15836559 -0.5 -0.34960145 0 -1 0 0
0.5 -0.23690821 -0.16783263 1 0 0 0
0.5 0.015370049 -0.16021939 1 0 0 0
-0.045176215 0.15608908 0.5 0 0 1 0
-0.5 -0.21629852 -0.29245055 -1 0 0 0
0.5 0.10224396 0.016467122 1 0 0 0
-0.054576375 0.26510862 -0.5 0 0 -1 0
0.5 0.36540774 0.27325761 1 0 0 0
0.5 0.48185104 0.45209882 1 0 0 0
-0.29131833 -0.18736604 0.5 0 0 1 0
-0.14472814 -0.5 -0.44591621 0 -1 0 0
-0.42625493 -0.066607505 0.5 0 0 1 0
-0.5 0.1842944 -0.12026163 -1 0 0 0
0.5 0.30351579 -0.0067201103 1 0 0 0
-0.5 -0.023393441 -0.36687234 -1 0 0 0
0.5 -0.38292578 0.12514922 1 0 0 0
0.22290465 -0.5 0.45527589 0 -1 0 0
0.5 -0.013312397 -0.25475812 1 0 0 0
-0.063671432 -0.12577718 0.5 0 0 1 0
-0.038670868 -0.32898256 -0.5 0 0 -1 0
0.40657127 0.5 -0.077944636 0 1 0 0
0.5 -0.36784095 -0.024908202 1 0 0 0
-0.42901388 0.5 0.43604532 0 1 0 0
-0.5 -0.021916674 -0.070924133 -1 0 0 0
-0.5 -0.27942678 0.12189686 -1 0 0 0
0.5 0.33328092 0.28575769 1 0 0 0
0.5 -0.17076038 0.41358784 1 0 0 0
0.34673864 -0.5 -0.36371416 0 -1 0 0
0.27308318 -0.030594176 -0.5 0 0 -1 0
-0.42934909 0.4405598 0.5 0 0 1 0
0.40007618 -0.098113991 -0.5 0 0 -1 0
-0.5 -0.096241698 0.13049822 -1 0 0 0
0.5 -0.17901927 0.023155769 1 0 0 0
0.5 0.10916559 0.1942578 1 0 0 0
-0.36687273 0.5 0.029779758 0 1 0 0
-0.5 0.44879368 0.17562445 -1 0 0 0
0.16380177 -0.5 0.12597193 0 -1 0 0
-0.29255477 0.5 -0.032042649 0 1 0 0
0.092568956 -0.19349961 0.5 0 0 1 0
-0.29571164 0.025669442 -0.5 0 0 -1 0
-0.35966459 0.11734489 0.5 0 0 1 0
0.5 0.038692351 0.30653664 1 0 0 0
-0.19283417 0.5 -0.03613735 0 1 0 0
0.23406491 -0.11427499 0.5 0 0 1 0
0.5 -0.10122447 0.049628206 1 0 0 0
0.17163809 0.5 0.27856642 0 1 0 0
0.012148289 -0.5 0.42554069 0 -1 0 0
-0.33976796 0.5 0.48006949 0 1 0 0
-0.5 0.20837228 0.17883742 -1 0 0 0
-0.19859718 0.5 -0.17710879 0 1 0 0
0.019130906 0.5 0.46685728 0 1 0 0
-0.5 0.44401956 0.41935721 -1 0 0 0
-0.30082592 0.5 -0.018796165 0 1 0 0
-0.19607326 0.40330458 -0.5 0 0 -1 0
-0.5 -0.16714358 -0.053618561 -1 0 0 0
0.19925323 0.5 0.15455136 0 1 0 0
0.42269462 0.5 -0.040996984 0 1 0 0
0.5 -0.21128802 0.083073199 1 0 0 0
-0.44743824 0.094750576 -0.5 0 0 -1 0
-0.5 0.021838393 0.44028533 -1 0 0 0
-0.47815105 0.49113387 0.5 0 0 1 0
0.5 -0.19454636 -0.43509221 1 0 0 0
-0.5 -0.45352218 0.02764006 -1 0 0 0
0.46132952 0.35507131 0.5 0 0 1 0
0.5 0.025298137 -0.28890553 1 0 0 0
0.5 0.39991951 0.3471449 1 0 0 0
0.10458764 -0.19559774 0.5 0 0 1 0
-0.40506303 0.42312619 0.5 0 0 1 0
-0.0070304177 -0.5 0.028944969 0 -1 0 0
0.38433856 0.5 0.23690411 0 1 0 0
-0.047267333 -0.42207235 0.5 0 0 1 0
0.23817395 0.5 -0.01839968 0 1 0 0
-0.45904112 0.5 0.1041821 0 1 0 0
0.074912354 -0.43362835 -0.5 0 0 -1 0
-0.5 0.37502712 0.044001751 -1 0 0 0
-0.28976953 -0.5 0.39777425 0 -1 0 0
0.5 0.25378478 0.11428946 1 0 0 0
-0.071037807 -0.4720116 -0.5 0 0 -1 0
-0.5 -0.23184082 -0.47267398 -1 0 0 0
0.15336338 -0.42175138 0.5 0 0 1 0
0.0093662487 0.12193543 0.5 0 0 1 0
0.27682787 0.5 0.35414824 0 1 0 0
0.34275183 0.5 -0.080685221 0 1 0 0
0.22092743 0.5 0.080004811 0 1 0 0
0.39742589 -0.5 -0.46311507 0 -1 0 0
-0.5 0.24105725 -0.19015729 -1 0 0 0
0.28974316 -0.41178071 -0.5 0 0 -1 0
0.15586674 -0.16976108 -0.5 0 0 -1 0
-0.26059365 0.5 -0.20227703 0 1 0 0
0.5 -0.082756102 -0.46461537 1 0 0 0
-0.5 -0.42871511 -0.063570462 -1 0 0 0
-0.5 -0.44564447 -0.031441998 -1 0 0 0
-0.18694043 -0.5 0.092051238 0 -1 0 0
0.071562998 0.24070385 -0.5 0 0 -1 0
-0.5 0.1557167 0.21355233 -1 0 0 0
0.36513677 0.5 -0.4965573 0 1 0 0
-0.075763948 -0.3888967 -0.5 0 0 -1 0
0.5 0.42550361 0.3648513 1 0 0 0
0.014200518 -0.5 0.33266813 0 -1 0 0
0.5 0.078314386 -0.19183737 1 0 0 0
-0.43671459 -0.5 0.13776012 0 -1 0 0
-0.5 0.35352287 -0.48525295 -1 0 0 0
0.095858157 0.11675417 0.5 0 0 1 0
-0.09716507 -0.5 0.45940012 0 -1 0 0
0.11766879 0.24466816 0.5 0 0 1 0
0.5 0.16951121 -0.3554959 1 0 0 0
-0.37592587 0.5 0.18626294 0 1 0 0
-0.5 0.4099336 0.33629271 -1 0 0 0
0.5 0.34968352 -0.019390561 1 0 0 0
-0.5 0.23536976 0.40515295 -1 0 0 0
0.38104084 0.5 -0.38434786 0 1 0 0
-0.16158596 0.47118405 0.5 0 0 1 0
0.3384836 -0.5 -0.22994041 0 -1 0 0
0.16007274 0.5 -0.054339595 0 1 0 0
-0.1935993 -0.17663002 -0.5 0 0 -1 0
-0.5 -0.41197351 0.0093763331 -1 0 0 0
-0.21057253 -0.5 -0.092322446 0 -1 0 0
-0.5 -0.38124603 0.096068233 -1 0 0 0
-0.5 0.097886205 -0.38459584 -1 0 0 0
0.5 0.092400476 0.4727737 1 0 0 0
-0.098135807 -0.5 -0.36854568 0 -1 0 0
0.073177241 -0.5 0.0060344376 0 -1 0 0
0.5 -0.28465191 0.18535638 1 0 0 0
0.33959979 -0.5 0.043976702 0 -1 0 0
0.5 -0.035093985 -0.35972026 1 0 0 0
0.29003716 -0.34577763 0.5 0 0 1 0
-0.5 0.39666426 0.36708817 -1 0 0 0
-0.31727764 0.48542884 -0.5 0 0 -1 0
-0.5 -0.34082273 -0.41627541 -1 0 0 0
0.5 0.03701508 0.087104358 1 0 0 0
-0.2695995 0.15885919 -0.5 0 0 -1 0
-0.40863326 -0.5 0.10095547 0 -1 0 0
0.19495168 0.5 -0.079563603 0 1 0 0
0.5 0.09342625 -0.19155537 1 0 0 0
0.5 -0.04249547 0.27423349 1 0 0 0
0.5 -0.29077733 0.31946754 1 0 0 0
0.065797232 0.14597842 -0.5 0 0 -1 0
-0.16097146 -0.44729313 0.5 0 0 1 0
-0.5 -0.089544378 0.068002053 -1 0 0 0
-0.48054662 -0.5 0.45304039 0 -1 0 0
0.5 -0.39388895 0.035306353 1 0 0 0
-0.36914387 0.20121315 -0.5 0 0 -1 0
0.26308417 0.5 0.047344305 0 1 0 0
-0.48106214 -0.21121995 0.5 0 0 1 0
0.42776829 -0.46329558 -0.5 0 0 -1 0
-0.5 0.011613258 -0.4123275 -1 0 0 0
0.5 -0.16687986 0.073610216 1 0 0 0
0.5 0.39220059 -0.39264661 1 0 0 0
-0.5 -0.22560319 0.43850568 -1 0 0 0
0.5 0.11871146 0.23364559 1 0 0 0
0.5 -0.23417433 -0.096493475 1 0 0 0
0.5 -0.23295923 0.41805395 1 0 0 0
-0.5 -0.23930505 0.12243474 -1 0 0 0
0.29313144 -0.5 -0.34010959 0 -1 0 0
0.086608097 0.5 -0.11467239 0 1 0 0
-0.43567443 -0.37999365 0.5 0 0 1 0
-0.5 0.029535936 0.059972517 -1 0 0 0
-0.17327522 0.23660782 -0.5 0 0 -1 0
0.5 0.038694285 -0.12644809 1 0 0 0
0.48523471 0.3094351 -0.5 0 0 -1 0
0.37658918 -0.5 0.26166844 0 -1 0 0
-0.46009851 0.5 -0.12459862 0 1 0 0
0.42907733 -0.5 0.10465676 0 -1 0 0
0.11162186 0.035019729 -0.5 0 0 -1 0
-0.41252396 -0.44293863 -0.5 0 0 -1 0
0.5 0.28897563 -0.39745682 1 0 0 0
0.11268786 0.0047826818 0.5 0 0 1 0
0.47259396 0.5 0.37136915 0 1 0 0
0.13210998 0.5 -0.29327509 0 1 0 0
0.35156074 -0.31396648 -0.5 0 0 -1 0
-0.42520231 -0.5 -0.37524068 0 -1 0 0
0.045631673 0.5 0.06845665 0 1 0 0
0.0040864889 -0.31838566 0.5 0 0 1 0
0.06881398 0.44340867 -0.5 0 0 -1 0
0.4248493 0.48471412 0.5 0 0 1 0
-0.39156717 -0.069388799 0.5 0 0 1 0
0.5 -0.081504539 0.37532467 1 0 0 0
-0.46684289 0.2286049 -0.5 0 0 -1 0
-0.27745789 0.23467892 -0.5 0 0 -1 0
0.43049595 0.5 -0.097755209 0 1 0 0
0.5 0.21938786 0.30759686 1 0 0 0
-0.30296215 0.5 -0.11492021 0 1 0 0
-0.48902678 -0.073298894 0.5 0 0 1 0
-0.29322365 -0.5 -0.20965241 0 -1 0 0
-0.5 0.28054273 -0.43063721 -1 0 0 0
-0.22530381 -0.4244839 -0.5 0 0 -1 0
-0.0064681163 -0.5 0.11384498 0 -1 0 0
-0.022812413 0.5 -0.38211107 0 1 0 0
0.41248399 0.5 0.40474254 0 1 0 0
-0.5 -0.12386922 -0.31112772 -1 0 0 0
-0.47602174 0.49721384 -0.5 0 0 -1 0
0.5 -0.28628549 -0.38636214 1 0 0 0
-0.5 0.40091872 -0.14210814 -1 0 0 0
-0.39415047 0.5 0.48681402 0 1 0 0
0.34250128 -0.5 -0.14016198 0 -1 0 0
0.5 -0.3624965 0.42603454 1 0 0 0
-0.5 0.23622599 0.013403711 -1 0 0 0
-0.013944694 -0.5 -0.36846557 0 -1 0 0
0.5 -0.03855481 0.11186045 1 0 0 0
-0.37778023 -0.5 -0.35227406 0 -1 0 0
-0.1881278 0.5 -0.13611664 0 1 0 0
-0.45707151 0.5 0.0011289173 0 1 0 0
0.20323581 -0.5 -0.21583493 0 -1 0 0
0.1041737 -0.15262955 0.5 0 0 1 0
-0.20815107 0.5 -0.38265756 0 1 0 0
0.33322591 -0.47242007 0.5 0 0 1 0
-0.2434268 -0.5 -0.27412006 0 -1 0 0
0.048348606 -0.5 0.40697595 0 -1 0 0
-0.24194673 0.39868626 -0.5 0 0 -1 0
0.5 0.37195793 0.36903968 1 0 0 0
-0.5 0.033758644 0.084683746 -1 0 0 0
0.20959064 -0.5 -0.15520643 0 -1 0 0
0.21684773 -0.44019064 0.5 0 0 1 0
0.5 0.00062034954 -0.073164873 1 0 0 0
-0.5 0.15142784 -0.23197766 -1 0 0 0
0.23871109 -0.15208599 -0.5 0 0 -1 0
0.28507045 0.21853969 0.5 0 0 1 0
0.5 0.44358662 0.3036665 1 0 0 0
0.14773005 -0.5 -0.082320787 0 -1 0 0
-0.45053771 0.18748699 -0.5 0 0 -1 0
0.43212181 -0.5 0.15094407 0 -1 0 0
0.15207976 -0.5 0.34087029 0 -1 0 0
-0.24619924 0.12934439 0.5 0 0 1 0
-0.44860846 -0.23766957 -0.5 0 0 -1 0
-0.5 0.11514403 0.15910442 -1 0 0 0
0.1078987 0.5 -0.48217469 0 1 0 0
-0.40984669 0.29357669 -0.5 0 0 -1 0
-0.34293327 -0.3206394 -0.5 0 0 -1 0
0.20139146 0.14413978 -0.5 0 0 -1 0
0.5 0.43197042 0.05894899 1 0 0 0
0.28027374 -0.5 -0.061386261 0 -1 0 0
-0.5 -0.1075855 -0.21896279 -1 0 0 0
0.48705465 0.5 -0.33573374 0 1 0 0
0.22179779 0.24459407 -0.5 0 0 -1 0
0.097405724 -0.5 0.24919102 0 -1 0 0
0.5 -0.1841495 0.046955682 1 0 0 0
0.030036138 -0.5 -0.18261826 0 -1 0 0
-0.47975594 0.5 0.25793332 0 1 0 0
-0.44527969 -0.18423542 -0.5 0 0 -1 0
-0.092695564 0.06569764 0.5 0 0 1 0
0.5 -0.062402625 0.34313455 1 0 0 0
-0.30750036 0.5 -0.38807756 0 1 0 0
-0.27674568 0.5 -0.30383012 0 1 0 0
0.5 0.038406514 0.036708809 1 0 0 0
-0.17878562 -0.5 0.14997329 0 -1 0 0
-0.5 -0.41224018 0.097553864 -1 0 0 0
-0.5 0.41157022 -0.1721909 -1 0 0 0
0.5 -0.073100068 -0.16588718 1 0 0 0
0.40140387 0.29312834 -0.5 0 0 -1 0
0.5 0.1024275 0.10132801 1 0 0 0
0.38925418 -0.47150826 -0.5 0 0 -1 0
-0.5 -0.28985971 -0.010667571 -1 0 0 0
0.27575099 0.5 0.45306543 0 1 0 0
0.5 0.45921117 -0.078706257 1 0 0 0
-0.46010295 0.5 -0.049582869 0 1 0 0
-0.5 0.12778039 -0.41832998 -1 0 0 0
-0.5 -0.34604427 0.31121877 -1 0 0 0
-0.38688868 -0.5 -0.43817773 0 -1 0 0
-0.5 0.31695062 0.19377442 -1 0 0 0
0.5 -0.43455458 -0.49343717 1 0 0 0
-0.41574568 0.43778768 -0.5 0 0 -1 0
0.18740317 -0.5 0.10365972 0 -1 0 0
0.39188674 0.45223156 0.5 0 0 1 0
-0.5 -0.43801296 -0.058275599 -1 0 0 0
0.5 -0.042520575 -0.18581697 1 0 0 0
-0.39214221 -0.26574954 -0.5 0 0 -1 0
-0.056243476 -0.28408188 0.5 0 0 1 0
-0.5 0.42194551 0.43964994 -1 0 0 0
0.48347881 -0.35292619 0.5 0 0 1 0
0.5 0.43021435 -0.45710212 1 0 0 0
-0.038306627 0.38467029 0.5 0 0 1 0
-0.12990382 0.29364648 -0.5 0 0 -1 0
-0.11569089 0.5 0.41692221 0 1 0 0
0.5 -0.25489447 -0.038480699 1 0 0 0
0.079072364 -0.20611738 -0.5 0 0 -1 0
-0.14749831 0.5 0.0040399367 0 1 0 0
0.23549666 -0.5 0.059749197 0 -1 0 0
0.11030134 0.5 0.16542865 0 1 0 0
-0.056848366 0.42697269 0.5 0 0 1 0
0.5 0.32060903 0.48507643 1 0 0 0
-0.32712719 -0.026498301 0.5 0 0 1 0
-0.5 -0.13486658 -0.033565469 -1 0 0 0
0.5 0.46706581 -0.057822846 1 0 0 0
0.18799138 0.5 0.42878106 0 1 0 0
-0.3216176 -0.42716688 0.5 0 0 1 0
-0.5 -0.48724657 -0.080233671 -1 0 0 0
-0.12740412 0.28099975 -0.5 0 0 -1 0
0.5 0.14494902 0.26589248 1 0 0 0
-0.36997321 -0.5 0.43805748 0 -1 0 0
0.5 -0.43826786 0.35779366 1 0 0 0
0.40437338 -0.16581959 -0.5 0 0 -1 0
0.5 0.24474467 0.16835845 1 0 0 0
0.5 0.34097865 -0.33083791 1 0 0 0
-0.44016856 0.5 -0.087153137 0 1 0 0
0.5 0.14350575 0.39762339 1 0 0 0
0.23950477 -0.5 0.045589034 0 -1 0 0
-0.085131891 -0.48337609 -0.5 0 0 -1 0
0.5 0.29096425 0.49537152 1 0 0 0
0.41675484 0.5 0.35072088 0 1 0 0
0.5 0.20949169 -0.36374459 1 0 0 0
0.33596843 -0.5 0.30313921 0 -1 0 0
-0.43297389 -0.5 0.007712224 0 -1 0 0
0.35696092 -0.33923471 0.5 0 0 1 0
-0.5 0.37626794 0.18832 -1 0 0 0
-0.25674886 -0.17823297 0.5 0 0 1 0
-0.5 0.22212367 0.045311097 -1 0 0 0
0.5 0.45575595 -0.15407182 1 0 0 0
0.23625375 -0.5 -0.13016042 0 -1 0 0
-0.5 -0.31448039 -0.2490816 -1 0 0 0
-0.5 0.24242613 -0.19832823 -1 0 0 0
-0.5 0.020867093 -0.28482056 -1 0 0 0
0.5 0.35975334 0.23398137 1 0 0 0
-0.5 0.043215282 -0.22258325 -1 0 0 0
0.5 0.2942262 -0.14600316 1 0 0 0
-0.46118855 -0.195977 0.5 0 0 1 0
0.5 -0.030217396 0.019933969 1 0 0 0
-0.29284641 -0.1305128 -0.5 0 0 -1 0
-0.5 0.43103662 -0.36375779 -1 0 0 0
0.069238052 0.5 0.3160907 0 1 0 0
-0.17010243 0.088296518 0.5 0 0 1 0
0.30385545 0.14337243 -0.5 0 0 -1 0
0.5 0.026191942 -0.26582813 1 0 0 0
-0.5 0.36512804 0.42766467 -1 0 0 0
-0.16434446 -0.5 -0.13738754 0 -1 0 0
0.1185523 -0.31802604 -0.5 0 0 -1 0
0.11087929 -0.43481609 -0.5 0 0 -1 0
-0.20998089 -0.5 -0.14892814 0 -1 0 0
0.44497573 0.097688302 -0.5 0 0 -1 0
0.22158308 0.042674821 0.5 0 0 1 0
0.32570785 -0.5 -0.12290729 0 -1 0 0
-0.079431772 -0.5 -0.0098160915 0 -1 0 0
0.44661734 -0.04010313 -0.5 0 0 -1 0
0.29124019 0.5 0.27676055 0 1 0 0
0.10305625 -0.5 0.46908596 0 -1 0 0
-0.39897877 0.36359796 0.5 0 0 1 0
0.24516481 0.011705448 -0.5 0 0 -1 0
0.5 0.44761297 -0.02095573 1 0 0 0
0.051280312 0.5 0.13177222 0 1 0 0
-0.32766059 0.5 -0.008685289 0 1 0 0
0.026808862 -0.094387978 -0.5 0 0 -1 0
0.11351474 -0.15766576 0.5 0 0 1 0
-0.28907257 0.44255587 -0.5 0 0 -1 0
0.44258431 -0.5 -0.48542076 0 -1 0 0
-0.24462934 -0.48531169 0.5 0 0 1 0
-0.5 -0.16056089 0.13993214 -1 0 0 0
-0.5 0.47086787 0.15276451 -1 0 0 0
-0.016617887 0.29681835 -0.5 0 0 -1 0
-0.5 -0.41457957 0.26254451 -1 0 0 0
0.3069661 -0.5 -0.047703888 0 -1 0 0
0.051263124 -0.5 -0.42065132 0 -1 0 0
0.43590832 -0.5 -0.17961304 0 -1 0 0
0.096914537 -0.5 -0.15736775 0 -1 0 0
-0.39612108 -0.39285216 -0.5 0 0 -1 0
-0.17122819 0.46678197 0.5 0 0 1 0
0.23500456 0.27841541 -0.5 0 0 -1 0
-0.096878096 0.5 0.23022668 0 1 0 0
-0.5 -0.035264648 0.22823961 -1 0 0 0
0.36031696 0.5 -0.12941098 0 1 0 0
0.49453607 0.49946487 0.5 0 0 1 0
0.091423951 0.5 0.43759462 0 1 0 0
-0.5 -0.20340325 -0.35474524 -1 0 0 0
-0.5 -0.098472029 -0.49521619 -1 0 0 0
-0.36055049 -0.5 0.22802956 0 -1 0 0
-0.5 -0.18330009 0.40787932 -1 0 0 0
0.19400837 -0.5 -0.30147767 0 -1 0 0
-0.041959114 -0.5 -0.20686299 0 -1 0 0
-0.32375073 0.5 0.27876267 0 1 0 0
-0.18326055 0.059877854 -0.5 0 0 -1 0
0.46255693 0.12161098 0.5 0 0 1 0
-0.5 -0.33943674 -0.38069493 -1 0 0 0
-0.35320514 0.31889218 -0.5 0 0 -1 0
-0.5 -0.22231148 -0.26484334 -1 0 0 0
0.020196941 0.42851499 0.5 0 0 1 0
0.46915573 0.43395817 -0.5 0 0 -1 0
-0.14549817 -0.5 -0.38787434 0 -1 0 0
0.31073365 -0.16677709 -0.5 0 0 -1 0
0.31827912 -0.24162196 -0.5 0 0 -1 0
0.5 0.076743215 0.38441858 1 0 0 0
0.5 -0.40351197 0.45929694 1 0 0 0
0.5 -0.39627999 -0.094282366 1 0 0 0
-0.44543114 0.5 0.36145553 0 1 0 0
-0.40606013 -0.5 0.34724149 0 -1 0 0
-0.228394 -0.5 0.41663069 0 -1 0 0
0.5 -0.073532745 0.033145327 1 0 0 0
-0.28859991 -0.5 0.38658905 0 -1 0 0
-0.5 0.38671598 -0.48108605 -1 0 0 0
-0.17551272 0.15783659 0.5 0 0 1 0
0.48736623 0.5 -0.17795172 0 1 0 0
-0.5 0.42064682 0.26808986 -1 0 0 0
0.44734532 -0.5 -0.41491833 0 -1 0 0
0.25897396 -0.42487028 0.5 0 0 1 0
-0.076212332 0.5 -0.24527465 0 1 0 0
0.44383708 -0.3965407 -0.5 0 0 -1 0
0.5 -0.26790237 -0.40327707 1 0 0 0
-0.38989815 0.5 0.018155236 0 1 0 0
-0.44246018 0.42808482 -0.5 0 0 -1 0
0.30549812 0.5 0.11231589 0 1 0 0
0.05877544 0.5 0.16115445 0 1 0 0
-0.5 0.46592888 0.16711074 -1 0 0 0
-0.38257846 -0.5 0.0038387806 0 -1 0 0
-0.49756491 0.42672235 0.5 0 0 1 0
0.36875141 -0.5 -0.39507782 0 -1 0 0
-0.12544462 -0.5 -0.3477788 0 -1 0 0
0.47338894 -0.5 -0.3290084 0 -1 0 0
0.24713928 0.33014321 -0.5 0 0 -1 0
0.5 0.40621883 0.22613356 1 0 0 0
0.5 -0.14887165 -0.090013154 1 0 0 0
-0.35321325 0.45533711 -0.5 0 0 -1 0
-0.31674194 -0.5 0.48803049 0 -1 0 0
-0.5 -0.12455101 0.09406054 -1 0 0 0
-0.41958117 0.5 -0.099249706 0 1 0 0
0.41175273 -0.5 -0.34947118 0 -1 0 0
0.5 0.11663172 -0.15404962 1 0 0 0
-0.0030872098 -0.5 0.031443544 0 -1 0 0
-0.066060103 0.27221051 -0.5 0 0 -1 0
0.3337729 0.31085399 -0.5 0 0 -1 0
-0.22162311 0.5 -0.18053128 0 1 0 0
0.5 -0.10518572 -0.0022547042 1 0 0 0
-0.01155168 0.1490905 -0.5 0 0 -1 0
0.5 -0.26744413 0.14787097 1 0 0 0
0.33315709 0.22107527 -0.5 0 0 -1 0
0.5 0.1682789 -0.068283118 1 0 0 0
-0.5 -0.18103264 0.055918306 -1 0 0 0
0.072683722 0.1595923 0.5 0 0 1 0
-0.5 -0.38972688 0.24790922 -1 0 0 0
0.1165868 -0.5 0.14650068 0 -1 0 0
0.5 0.2072728 0.4708629 1 0 0 0
-0.5 -0.29714152 -0.13746041 -1 0 0 0
-0.1306027 -0.27936879 -0.5 0 0 -1 0
0.39670199 0.5 -0.40701473 0 1 0 0
-0.5 0.054031417 0.339966 -1 0 0 0
-0.5 -0.33773854 -0.47589323 -1 0 0 0
-0.5 -0.27957264 0.17360151 -1 0 0 0
0.29068291 0.5 -0.27648795 0 1 0 0
0.38914984 0.1080372 -0.5 0 0 -1 0
-0.06379208 0.15353467 -0.5 0 0 -1 0
-0.27923906 -0.17105788 0.5 0 0 1 0
0.31664088 -0.12959206 -0.5 0 0 -1 0
0.48723269 0.031414371 0.5 0 0 1 0
0.085449323 0.28292567 0.5 0 0 1 0
0.5 -0.36589155 0.39366728 1 0 0 0
-0.42426315 0.40937218 0.5 0 0 1 0
0.5 -0.36029926 -0.41018611 1 0 0 0
0.16914068 -0.5 -0.25259784 0 -1 0 0
-0.5 -0.18941307 -0.11270241 -1 0 0 0
-0.39471939 -0.048743285 0.5 0 0 1 0
0.5 -0.23446079 0.29292762 1 0 0 0
-0.5 0.2884647 -0.014744231 -1 0 0 0
0.3279573 0.054428127 -0.5 0 0 -1 0
-0.12184969 0.5 -0.072198868 0 1 0 0
-0.29216918 -0.48736358 0.5 0 0 1 0
0.22916965 -0.5 0.057191268 0 -1 0 0
-0.5 -0.080608495 0.017309418 -1 0 0 0
0.5 0.16894288 0.31200281 1 0 0 0
-0.5 -0.044237979 0.051943369 -1 0 0 0
-0.11411376 -0.5 0.090153061 0 -1 0 0
-0.014179482 0.5 -0.33802441 0 1 0 0
-0.5 0.2961548 -0.4584223 -1 0 0 0
-0.38935149 0.16954835 0.5 0 0 1 0
0.15313624 0.26560846 0.5 0 0 1 0
0.26953366 0.27280048 0.5 0 0 1 0
-0.5 0.35996392 0.22652821 -1 0 0 0
-0.1605871 0.5 -0.012693801 0 1 0 0
-0.28439203 0.47618899 0.5 0 0 1 0
0.46916187 0.27831802 -0.5 0 0 -1 0
0.17764726 -0.048924461 -0.5 0 0 -1 0
-0.5 0.39506161 0.30449459 -1 0 0 0
0.091164179 -0.1187773 -0.5 0 0 -1 0
0.33596277 -0.5 -0.47375652 0 -1 0 0
-0.18606927 -0.26623628 0.5 0 0 1 0
0.37069613 -0.033904731 0.5 0 0 1 0
0.48831278 -0.057235345 -0.5 0 0 -1 0
-0.5 0.43993172 0.12756412 -1 0 0 0
-0.5 -0.1137505 0.11274387 -1 0 0 0
0.5 0.21694721 0.43635288 1 0 0 0
0.20795538 0.5 -0.23799929 0 1 0 0
0.21979341 -0.19744882 0.5 0 0 1 0
0.39091566 -0.22109169 -0.5 0 0 -1 0
-0.5 0.058250234 0.43006262 -1 0 0 0
0.13123651 -0.30806732 0.5 0 0 1 0
0.5 -0.24410093 -0.3484714 1 0 0 0
-0.5 -0.24203871 -0.25687167 -1 0 0 0
-0.096315503 -0.41001883 -0.5 0 0 -1 0
-0.13728042 0.2719211 -0.5 0 0 -1 0
0.39885682 0.5 0.086916879 0 1 0 0
-0.32881635 0.5 0.41632408 0 1 0 0
-0.0073463349 -0.5 0.46272653 0 -1 0 0
0.28081486 -0.5 -0.3445555 0 -1 0 0
0.14543667 -0.0062681204 -0.5 0 0 -1 0
0.5 -0.31964493 0.39580649 1 0 0 0
0.5 0.24449833 0.027829722 1 0 0 0
-0.280247 -0.5 -0.1113437 0 -1 0 0
0.38662508 0.42795771 0.5 0 0 1 0
0.5 -0.28822619 -0.25565013 1 0 0 0
0.5 -0.0094105219 0.13649131 1 0 0 0
-0.39390418 -0.5 0.40283757 0 -1 0 0
0.42690247 -0.033253625 0.5 0 0 1 0
-0.5 0.47152936 0.034479398 -1 0 0 0
0.029303014 -0.067376889 -0.5 0 0 -1 0
-0.5 -0.10857079 -0.29375312 -1 0 0 0
-0.3117274 0.5 0.20249537 0 1 0 0
-0.5 -0.052374288 -0.43458393 -1 0 0 0
0.5 -0.1093367 -0.23119281 1 0 0 0
-0.36783421 -0.1893383 0.5 0 0 1 0
0.5 0.40467185 0.41736153 1 0 0 0
0.5 0.14238365 -0.31552842 1 0 0 0
0.083271503 0.019122843 0.5 0 0 1 0
-0.5 -0.016989326 0.05659721 -1 0 0 0
0.5 -0.26254022 0.36563709 1 0 0 0
-0.5 0.25122955 -0.16610603 -1 0 0 0
-0.1898333 0.5 -0.19911291 0 1 0 0
0.0031470608 -0.10734995 0.5 0 0 1 0
0.11326604 0.5 -0.3581858 0 1 0 0
0.24242291 0.5 0.060967542 0 1 0 0
0.25961435 0.5 -0.25334606 0 1 0 0
-0.22371809 0.5 -0.33018348 0 1 0 0
0.29015154 0.4231596 -0.5 0 0 -1 0
-0.35549062 -0.5 0.26900575 0 -1 0 0
0.4691647 0.5 0.38796818 0 1 0 0
0.5 -0.38130119 -0.140514 1 0 0 0
-0.5 0.21944149 0.12758282 -1 0 0 0
-0.11994337 -0.39859709 -0.5 0 0 -1 0
0.5 0.40439332 0.46264032 1 0 0 0
-0.5 -0.12323047 -0.26656294 -1 0 0 0
0.1922846 0.27282616 -0.5 0 0 -1 0
-0.5 0.035863902 -0.27113488 -1 0 0 0
0.5 -0.20432542 -0.0997082 1 0 0 0
0.39487535 -0.5 -0.12582669 0 -1 0 0
-0.5 -0.19475819 -0.14727166 -1 0 0 0
0.5 0.18509085 -0.49285299 1 0 0 0
-0.19869231 0.5 0.42164627 0 1 0 0
-0.27206996 0.43686172 0.5 0 0 1 0
0.144133 -0.5 -0.10064518 0 -1 0 0
-0.5 0.17660083 -0.38798258 -1 0 0 0
0.1772486 -0.5 -0.14158003 0 -1 0 0
0.1472601 -0.089502186 -0.5 0 0 -1 0
0.5 0.16239697 0.41553149 1 0 0 0
0.17872049 -0.1588933 0.5 0 0 1 0
0.21065679 0.5 0.49134734 0 1 0 0
0.043484081 -0.5 -0.16302991 0 -1 0 0
0.20958644 -0.5 -0.4807345 0 -1 0 0
0.11849415 0.5 0.468914 0 1 0 0
0.16330096 -0.5 -0.40082508 0 -1 0 0
-0.10740206 0.5 0.10650065 0 1 0 0
0.49004638 0.052295934 -0.5 0 0 -1 0
0.25069505 0.5 0.063288353 0 1 0 0
0.4977431 0.5 0.19710839 0 1 0 0
0.084352642 0.5 0.28508937 0 1 0 0
-0.5 -0.1573503 0.24397075 -1 0 0 0
-0.17308806 0.5 0.091010012 0 1 0 0
-0.5 -0.3718307 -0.19660687 -1 0 0 0
-0.5 0.010917627 -0.04248165 -1 0 0 0
-0.41234538 -0.28892714 0.5 0 0 1 0
0.073587827 -0.5 -0.20940414 0 -1 0 0
-0.5 0.35608524 0.41937482 -1 0 0 0
-0.5 -0.14520049 -0.11311627 -1 0 0 0
-0.5 0.21845539 -0.34174937 -1 0 0 0
0.11624613 -0.25129858 0.5 0 0 1 0
-0.5 0.19999473 -0.011440146 -1 0 0 0
0.0013398954 -0.4803777 0.5 0 0 1 0
-0.39870262 0.5 -0.0051280055 0 1 0 0
0.5 0.15664828 0.42909759 1 0 0 0
-0.03410304 0.5 -0.14430831 0 1 0 0
0.5 0.48694563 0.082228065 1 0 0 0
0.38604611 0.30420715 0.5 0 0 1 0
-0.5 0.035436913 -0.21205239 -1 0 0 0
-0.5 0.20625058 -0.3958942 -1 0 0 0
-0.22645757 -0.072333485 0.5 0 0 1 0
0.5 0.098542921 -0.19062199 1 0 0 0
-0.5 0.27062199 -0.11439584 -1 0 0 0
0.5 -0.44213179 0.33744523 1 0 0 0
-0.31108642 0.42947459 -0.5 0 0 -1 0
0.28840223 0.5 -0.44176653 0 1 0 0
-0.5 -0.13247852 0.19898154 -1 0 0 0
-0.058692057 0.5 -0.17268912 0 1 0 0
-0.3882378 -0.11285215 0.5 0 0 1 0
0.5 0.24340735 -0.30927831 1 0 0 0
-0.40446296 0.19111672 0.5 0 0 1 0
0.33858424 -0.5 0.32069024 0 -1 0 0
0.017765375 -0.0080605801 -0.5 0 0 -1 0
-0.3032071 -0.0015152239 0.5 0 0 1 0
-0.24228813 -0.13658889 0.5 0 0 1 0
-0.5 -0.15286209 -0.32999066 -1 0 0 0
0.39684966 -0.5 -0.038784914 0 -1 0 0
-0.5 -0.0047326875 0.047007486 -1 0 0 0
0.36665902 -0.33002934 -0.5 0 0 -1 0
-0.39711255 0.5 0.27052888 0 1 0 0
0.5 -0.33577877 -0.30675697 1 0 0 0
-0.0057402709 -0.47672999 0.5 0 0 1 0
-0.5 -0.25938651 -0.29757002 -1 0 0 0
-0.5 0.4967545 0.050534811 -1 0 0 0
0.5 0.15146422 0.19800372 1 0 0 0
-0.5 -0.42073777 0.038232837 -1 0 0 0
0.45681217 -0.07383132 0.5 0 0 1 0
-0.40007457 0.5 0.053492431 0 1 0 0
0.16797866 0.011462874 -0.5 0 0 -1 0
-0.39447212 -0.5 0.10724662 0 -1 0 0
-0.5 -0.14645909 0.18434379 -1 0 0 0
0.41798559 0.5 -0.12857461 0 1 0 0
-0.35981515 -0.41315508 0.5 0 0 1 0
0.44813585 -0.5 0.43771133 0 -1 0 0
-0.11911871 -0.5 -0.02810202 0 -1 0 0
0.5 -0.021174144 -0.39500859 1 0 0 0
-0.5 -0.054791063 0.42820808 -1 0 0 0
-0.42117915 0.24207747 0.5 0 0 1 0
-0.5 0.15533039 -0.48008832 -1 0 0 0
0.28104639 -0.079889402 0.5 0 0 1 0
0.35138589 0.17653193 0.5 0 0 1 0
-0.14769712 0.5 -0.20672582 0 1 0 0
0.041297622 0.025967319 0.5 0 0 1 0
-0.047015745 -0.48242188 -0.5 0 0 -1 0
-0.5 -0.0093589155 -0.27316055 -1 0 0 0
-0.078208536 0.5 0.45089886 0 1 0 0
0.5 -0.037660174 -0.49218652 1 0 0 0
0.5 0.34622371 -0.17194438 1 0 0 0
-0.5 -0.27724546 -0.31488529 -1 0 0 0
-0.5 -0.22286698 0.1603961 -1 0 0 0
0.5 0.18123704 -0.26775444 1 0 0 0
-0.35638905 0.5 -0.169255 0 1 0 0
0.5 0.22710791 -0.27021998 1 0 0 0
-0.48605821 0.18032008 -0.5 0 0 -1 0
-0.5 0.042957466 -0.45391545 -1 0 0 0
0.36475745 0.2598682 -0.5 0 0 -1 0
0.25030145 0.29398203 0.5 0 0 1 0
-0.17511624 0.5 0.17864393 0 1 0 0
-0.5 0.45013374 -0.34814367 -1 0 0 0
-0.5 -0.13117057 -0.40918255 -1 0 0 0
0.39532465 0.28147933 0.5 0 0 1 0
-0.29088423 0.10889192 0.5 0 0 1 0
-0.0065733311 0.47797155 -0.5 0 0 -1 0
-0.22145359 0.5 -0.029572306 0 1 0 0
0.23014921 -0.24121073 -0.5 0 0 -1 0
-0.5 -0.45040533 -0.079993479 -1 0 0 0
-0.054830439 -0.09778408 -0.5 0 0 -1 0
-0.5 0.11758446 0.14040799 -1 0 0 0
-0.5 0.47581202 0.051830009 -1 0 0 0
-0.5 0.32250634 -0.18629892 -1 0 0 0
-0.32282445 0.5 -0.28952932 0 1 0 0
-0.47970304 0.36904559 -0.5 0 0 -1 0
-0.5 0.075353317 -0.038501225 -1 0 0 0
-0.12087966 -0.5 0.41585085 0 -1 0 0
0.35447586 0.11172385 -0.5 0 0 -1 0
-0.5 -0.15420356 0.35347632 -1 0 0 0
0.5 -0.26249194 -0.46456572 1 0 0 0
-0.10843845 0.5 -0.29079059 0 1 0 0
-0.43417937 0.5 0.25239423 0 1 0 0
-0.35287908 -0.5 0.16148376 0 -1 0 0
0.32331437 -0.4160029 -0.5 0 0 -1 0
-0.18748552 0.5 -0.49605471 0 1 0 0
-0.5 -0.43788439 0.34566325 -1 0 0 0
-0.42803946 -0.059085879 0.5 0 0 1 0
-0.40940884 -0.5 0.06562876 0 -1 0 0
-0.14197463 -0.5 -0.16753821 0 -1 0 0
0.43182644 0.5 -0.14939721 0 1 0 0
0.043953754 0.2692678 -0.5 0 0 -1 0
0.36331415 0.049210891 0.5 0 0 1 0
0.4891336 0.5 0.23762429 0 1 0 0
0.37386906 -0.0095117725 0.5 0 0 1 0
0.5 0.040954232 -0.14125286 1 0 0 0
-0.055162523 -0.5 0.059112038 0 -1 0 0
-0.031088803 -0.5 0.46141905 0 -1 0 0
0.043886393 -0.14329225 -0.5 0 0 -1 0
-0.5 -0.051486626 -0.43226343 -1 0 0 0
-0.5 -0.44510365 0.042217821 -1 0 0 0
-0.086087555 -0.5 0.28025857 0 -1 0 0
-0.22021426 -0.5 -0.14119549 0 -1 0 0
-0.39143038 -0.5 0.22951326 0 -1 0 0
-0.37919372 -0.1090536 0.5 0 0 1 0
-0.10031654 0.020082507 -0.5 0 0 -1 0
-0.5 0.44511551 -0.0016623053 -1 0 0 0
0.14436921 0.2285433 0.5 0 0 1 0
-0.40615785 -0.5 -0.29477775 0 -1 0 0
-0.053140875 0.5 0.13865834 0 1 0 0
-0.5 -0.015807921 0.19952567 -1 0 0 0
0.5 -0.42026338 0.15168801 1 0 0 0
-0.5 -0.12869048 -0.15244414 -1 0 0 0
0.36824116 -0.5 0.25268513 0 -1 0 0
0.45768774 0.30360794 0.5 0 0 1 0
0.17004327 0.48300391 0.5 0 0 1 0
0.5 -0.25570548 -0.39750239 1 0 0 0
0.044844229 0.5 0.30306619 0 1 0 0
0.15776791 0.23913269 0.5 0 0 1 0
0.5 -0.31985927 0.183752 1 0 0 0
0.24214506 0.26800045 -0.5 0 0 -1 0
0.5 -0.020392496 -0.25708699 1 0 0 0
0.062849559 0.49711072 0.5 0 0 1 0
0.5 -0.37245986 0.38158935 1 0 0 0
0.34651619 0.19495755 -0.5 0 0 -1 0
-0.2625618 0.5 -0.12372822 0 1 0 0
-0.5 0.48711514 0.068475299 -1 0 0 0
0.5 0.23150463 -0.3700743 1 0 0 0
0.12033027 0.5 -0.12805685 0 1 0 0
0.20375405 -0.5 -0.026279377 0 -1 0 0
-0.39862207 0.5 -0.35886294 0 1 0 0
-0.20770501 0.37908781 0.5 0 0 1 0
-0.02216737 -0.26627332 -0.5 0 0 -1 0
0.26128969 0.5 0.09166833 0 1 0 0
0.27350011 0.5 0.28337088 0 1 0 0
-0.23876786 0.47547233 0.5 0 0 1 0
0.5 -0.41772386 0.041138675 1 0 0 0
-0.25996962 0.5 0.30950376 0 1 0 0
-0.054769713 0.5 -0.43238664 0 1 0 0
0.16155118 -0.5 0.011502763 0 -1 0 0
0.022259334 -0.024243083 -0.5 0 0 -1 0
0.4993934 -0.44568068 -0.5 0 0 -1 0
-0.5 0.3558948 -0.43943858 -1 0 0 0
-0.5 -0.40486532 0.47615427 -1 0 0 0
0.056431353 0.12175414 0.5 0 0 1 0
-0.43115589 0.5 0.43700737 0 1 0 0
0.5 -0.13702448 0.079855837 1 0 0 0
0.39600241 -0.036238935 -0.5 0 0 -1 0
-0.32760605 0.5 -0.40961611 0 1 0 0
0.078436203 -0.5 0.39019644 0 -1 0 0
-0.18238759 0.5 -0.43090686 0 1 0 0
-0.10523197 0.2949551 0.5 0 0 1 0
0.5 -0.43442091 -0.028831176 1 0 0 0
0.23113528 0.5 0.30935329 0 1 0 0
-0.44675276 0.5 -0.42619717 0 1 0 0
-0.038118608 -0.5 0.39359459 0 -1 0 0
-0.32036576 -0.5 -0.38708445 0 -1 0 0
-0.30700073 0.5 -0.23860404 0 1 0 0
0.35899964 0.5 -0.19235727 0 1 0 0
-0.19289459 -0.020603329 -0.5 0 0 -1 0
0.5 0.27887762 -0.12515061 1 0 0 0
0.47055763 -0.34352866 -0.5 0 0 -1 0
0.41689172 -0.5 -0.31466663 0 -1 0 0
-0.5 -0.33906981 -0.0040661078 -1 0 0 0
0.5 -0.26492786 -0.40731055 1 0 0 0
-0.10961866 -0.36080095 0.5 0 0 1 0
0.053523488 -0.5 -0.43071926 0 -1 0 0
-0.44044802 -0.3902359 -0.5 0 0 -1 0
0.5 0.37568551 0.022352319 1 0 0 0
0.21167198 -0.5 -0.42911884 0 -1 0 0
0.37529939 0.5 -0.42837486 0 1 0 0
0.21124399 -0.5 0.036904376 0 -1 0 0
-0.18362349 0.15993789 -0.5 0 0 -1 0
0.30562779 -0.19896445 -0.5 0 0 -1 0
0.47233871 0.5 0.33585033 0 1 0 0
-0.5 0.27502793 -0.16964591 -1 0 0 0
-0.092534192 0.14877395 0.5 0 0 1 0
0.5 0.14708203 -0.34511995 1 0 0 0
-0.28286874 -0.5 -0.17502356 0 -1 0 0
-0.24391282 0.26634601 0.5 0 0 1 0
-0.5 0.36768964 0.37233186 -1 0 0 0
-0.40139186 -0.5 -0.19317189 0 -1 0 0
-0.5 0.02027321 -0.39346579 -1 0 0 0
0.37856936 0.5 0.38464403 0 1 0 0
0.5 0.46081516 -0.11860202 1 0 0 0
0.5 0.08954718 0.23138635 1 0 0 0
-0.30668509 -0.31965771 -0.5 0 0 -1 0
-0.5 -0.3697606 0.4363659 -1 0 0 0
0.26879603 0.0021280816 -0.5 0 0 -1 0
0.31755829 0.18765959 0.5 0 0 1 0
0.5 0.47018269 0.33069754 1 0 0 0
-0.3040964 0.5 -0.49975038 0 1 0 0
-0.13490929 -0.5 0.46838617 0 -1 0 0
0.5 -0.25760433 0.231883 1 0 0 0
-0.13120224 -0.11602929 0.5 0 0 1 0
-0.33606273 -0.5 0.46173465 0 -1 0 0
-0.14514571 0.5 0.46395457 0 1 0 0
0.43604231 0.5 0.43695551 0 1 0 0
-0.39101905 -0.14308524 -0.5 0 0 -1 0
0.061331626 0.19933347 -0.5 0 0 -1 0
0.5 -0.22433671 0.142216 1 0 0 0
-0.168157 -0.21465886 0.5 0 0 1 0
0.5 0.15391743 0.45027941 1 0 0 0
-0.24275452 -0.024864031 -0.5 0 0 -1 0
-0.28591427 0.36133337 -0.5 0 0 -1 0
0.30760968 -0.15196289 -0.5 0 0 -1 0
-0.5 0.39577678 0.28386152 -1 0 0 0
0.5 -0.13150254 -0.086027756 1 0 0 0
0.2184612 0.32263511 -0.5 0 0 -1 0
-0.14216807 -0.41871375 0.5 0 0 1 0
0.5 0.42310619 0.069135264 1 0 0 0
0.5 0.44851637 0.16293965 1 0 0 0
0.49886659 0.5 0.49137309 0 1 0 0
-0.44900584 -0.44116613 0.5 0 0 1 0
0.5 0.33228949 -0.37848175 1 0 0 0
-0.5 -0.032417234 0.36889729 -1 0 0 0
0.5 -0.16021948 -0.46902978 1 0 0 0
-0.1229966 0.5 0.20384338 0 1 0 0
-0.26787204 -0.5 -0.1250641 0 -1 0 0
0.22068372 -0.12067345 -0.5 0 0 -1 0
0.5 0.42767483 -0.14139599 1 0 0 0
0.13606879 -0.5 -0.044837937 0 -1 0 0
0.10806876 0.5 0.033651121 0 1 0 0
0.5 0.29555413 0.44652253 1 0 0 0
-0.5 -0.23025304 -0.33511218 -1 0 0 0
0.48742726 -0.5 0.25791365 0 -1 0 0
-0.5 0.45004636 0.12080453 -1 0 0 0
0.5 0.21576105 0.35329235 1 0 0 0
0.5 0.23947142 -0.46434036 1 0 0 0
-0.26214039 0.206295 0.5 0 0 1 0
-0.024205325 0.5 -0.4093006 0 1 0 0
0.5 -0.30844235 0.48832679 1 0 0 0
-0.13381515 -0.43792441 -0.5 0 0 -1 0
-0.5 -0.26097679 0.10517874 -1 0 0 0
0.5 0.094776101 0.34955108 1 0 0 0
-0.05492219 0.077244334 -0.5 0 0 -1 0
0.5 -0.048570856 0.32385606 1 0 0 0
0.5 0.23718978 0.18600002 1 0 0 0
0.033558894 -0.5 -0.0049698693 0 -1 0 0
-0.36725745 -0.5 -0.49610606 0 -1 0 0
0.39155632 0.055086359 -0.5 0 0 -1 0
0.24177748 -0.44583112 0.5 0 0 1 0
-0.15660542 -0.5 0.39312568 0 -1 0 0
0.5 0.33938986 -0.035270747 1 0 0 0
-0.47179696 -0.4914926 0.5 0 0 1 0
-0.22182949 -0.28813124 0.5 0 0 1 0
-0.15715478 0.20773782 0.5 0 0 1 0
-0.077936649 0.16085066 0.5 0 0 1 0
-0.37121126 -0.37778863 -0.5 0 0 -1 0
0.45489615 -0.15385799 -0.5 0 0 -1 0
0.5 -0.4485245 0.47185391 1 0 0 0
-0.5 -0.40221322 0.092556544 -1 0 0 0
0.41416848 0.22155605 -0.5 0 0 -1 0
0.5 -0.43675441 -0.46827412 1 0 0 0
-0.17001422 0.5 0.42884129 0 1 0 0
-0.39702386 0.21998748 0.5 0 0 1 0
0.5 0.17084163 0.0062958691 1 0 0 0
-0.34485808 -0.5 -0.029798804 0 -1 0 0
0.022411615 0.5 -0.34432876 0 1 0 0
0.30598208 0.5 0.3590529 0 1 0 0
-0.5 -0.19095607 0.14052533 -1 0 0 0
-0.5 -0.3231172 -0.14240037 -1 0 0 0
0.401575 -0.29503223 0.5 0 0 1 0
0.39205551 -0.5 0.36947334 0 -1 0 0
-0.5 0.45902213 0.25602555 -1 0 0 0
0.5 0.048141323 -0.34063038 1 0 0 0
-0.01489984 0.49872172 0.5 0 0 1 0
0.28013933 -0.5 0.42332342 0 -1 0 0
-0.5 -0.39399272 -0.27181497 -1 0 0 0
0.48322004 -0.5 0.17462023 0 -1 0 0
0.5 -0.090862177 0.47135663 1 0 0 0
-0.3179512 -0.19391584 -0.5 0 0 -1 0
0.11515334 -0.5 0.45224804 0 -1 0 0
0.5 0.054701455 0.12089875 1 0 0 0
-0.5 -0.00020809867 -0.21752842 -1 0 0 0
0.27516338 -0.32902774 0.5 0 0 1 0
0.051576268 -0.5 -0.15766062 0 -1 0 0
0.41311607 0.5 -0.33502421 0 1 0 0
-0.5 0.16815633 0.12845479 -1 0 0 0
-0.26850805 0.37861544 0.5 0 0 1 0
0.058473796 -0.5 -0.23088862 0 -1 0 0
-0.5 0.47273868 -0.29184219 -1 0 0 0
0.5 -0.36947417 -0.11153868 1 0 0 0
0.5 -0.05208331 0.41102231 1 0 0 0
0.34154955 0.1714159 0.5 0 0 1 0
0.26331708 -0.5 -0.038657978 0 -1 0 0
0.36975655 0.029279524 0.5 0 0 1 0
0.14188367 -0.5 0.1474511 0 -1 0 0
-0.5 -0.076419197 -0.16297236 -1 0 0 0
-0.5 0.15859376 -0.44093779 -1 0 0 0
0.20827979 -0.44162837 0.5 0 0 1 0
0.23845431 -0.29845709 0.5 0 0 1 0
0.5 -0.20550293 0.16000509 1 0 0 0
-0.32344887 -0.5 0.34696713 0 -1 0 0
0.5 -0.49850875 -0.14473145 1 0 0 0
-0.5 0.020352162 0.42084214 -1 0 0 0
-0.5 -0.49978697 -0.013476515 -1 0 0 0
0.012706371 -0.5 -0.44401819 0 -1 0 0
-0.5 -0.29168382 -0.25746959 -1 0 0 0
0.5 0.49407876 -0.024068316 1 0 0 0
-0.12009617 -0.5 -0.45635548 0 -1 0 0
-0.44540778 -0.5 0.031584736 0 -1 0 0
0.35008717 -0.5 -0.093220495 0 -1 0 0
-0.5 0.26886296 -0.28629327 -1 0 0 0
0.5 -0.20370141 0.23235579 1 0 0 0
-0.5 -0.3223291 -0.2963838 -1 0 0 0
-0.5 0.069574736 -0.36222589 -1 0 0 0
-0.5 -0.29181749 -0.4273988 -1 0 0 0
-0.5 0.032314457 0.35861823 -1 0 0 0
0.29009643 -0.5 -0.1001184 0 -1 0 0
0.10826782 -0.34271362 0.5 0 0 1 0
-0.46732095 -0.5 -0.26302254 0 -1 0 0
0.018992119 0.14406717 0.5 0 0 1 0
-0.31937695 -0.5 0.23149846 0 -1 0 0
0.39117756 0.5 -0.1654039 0 1 0 0
0.22735275 -0.28547552 -0.5 0 0 -1 0
-0.081589192 0.2947157 0.5 0 0 1 0
-0.5 0.12031884 0.18102984 -1 0 0 0
0.42652038 0.5 0.4719159 0 1 0 0
-0.5 0.28744894 0.058329951 -1 0 0 0
-0.47960359 -0.5 0.30254948 0 -1 0 0
-0.038094342 -0.5 -0.25157478 0 -1 0 0
0.4569543 0.5 0.18633728 0 1 0 0
0.25949597 0.5 -0.36543554 0 1 0 0
0.5 0.39162457 -0.074198782 1 0 0 0
0.083680198 0.13418707 0.5 0 0 1 0
0.15730684 0.5 -0.49210748 0 1 0 0
0.094949491 0.5 -0.30767521 0 1 0 0
-0.5 -0.3938255 0.36839449 -1 0 0 0
0.2794407 -0.26280466 -0.5 0 0 -1 0
0.1448199 -0.28916916 -0.5 0 0 -1 0
-0.32301149 0.14604463 0.5 0 0 1 0
-0.5 0.33522743 -0.0028355822 -1 0 0 0
-0.31058046 -0.5 0.074384309 0 -1 0 0
0.5 -0.41076213 -0.14485566 1 0 0 0
-0.25581405 0.5 0.46691406 0 1 0 0
-0.5 0.12810302 0.34437788 -1 0 0 0
-0.5 0.2620782 0.48947537 -1 0 0 0
-0.077224925 -0.5 0.2151105 0 -1 0 0
0.10708322 -0.17523757 -0.5 0 0 -1 0
-0.3271465 -0.35148045 0.5 0 0 1 0
0.5 0.27816665 -0.075044759 1 0 0 0
0.48407394 -0.47168109 -0.5 0 0 -1 0
-0.084035426 0.38340789 -0.5 0 0 -1 0
-0.43294865 -0.5 0.43219885 0 -1 0 0
0.14428139 -0.13930008 -0.5 0 0 -1 0
-0.2974377 0.46791989 0.5 0 0 1 0
0.38323203 0.5 -0.42171091 0 1 0 0
0.048941761 0.5 -0.11693545 0 1 0 0
-0.5 -0.23074166 0.10791749 -1 0 0 0
0.0039643967 -0.40406331 -0.5 0 0 -1 0
0.15378234 0.5 0.14663576 0 1 0 0
-0.5 0.14429049 -0.25702718 -1 0 0 0
-0.27656546 0.23581007 -0.5 0 0 -1 0
0.5 0.18429184 0.077315785 1 0 0 0
-0.5 -0.29711291 0.37360314 -1 0 0 0
0.32740122 -0.062183045 -0.5 0 0 -1 0
0.032626141 0.5 -0.42452803 0 1 0 0
-0.23260769 -0.5 0.41764235 0 -1 0 0
-0.5 -0.20640656 -0.35730389 -1 0 0 0
0.17627631 -0.5 -0.32410148 0 -1 0 0
0.10608544 0.5 0.074524395 0 1 0 0
0.37065393 -0.22710194 -0.5 0 0 -1 0
0.41355261 -0.5 -0.42118707 0 -1 0 0
0.13819441 0.3664422 -0.5 0 0 -1 0
0.075477861 0.5 -0.0086521013 0 1 0 0
-0.14309564 -0.0083952071 0.5 0 0 1 0
0.27882159 -0.5 0.15541534 0 -1 0 0
0.5 -0.33299172 -0.42461228 1 0 0 0
-0.19288388 0.22915831 0.5 0 0 1 0
-0.35742033 0.16326497 -0.5 0 0 -1 0
0.49961013 -0.19740602 -0.5 0 0 -1 0
-0.31571877 0.5 0.2851316 0 1 0 0
0.5 0.094212204 0.4246389 1 0 0 0
-0.33962104 -0.010536927 0.5 0 0 1 0
-0.012844872 -0.5 0.088262305 0 -1 0 0
0.3183659 0.18305679 -0.5 0 0 -1 0
-0.5 -0.46324244 -0.16876678 -1 0 0 0
0.5 0.086061873 0.027997406 1 0 0 0
-0.5 -0.38219887 -0.016503969 -1 0 0 0
-0.1594941 0.28175032 0.5 0 0 1 0
0.5 0.47076187 0.065276496 1 0 0 0
-0.5 0.086097777 0.36856928 -1 0 0 0
-0.2317012 -0.5 0.35737339 0 -1 0 0
0.5 -0.40290216 -0.47933745 1 0 0 0
0.41246495 -0.5 0.13494095 0 -1 0 0
0.5 -0.18841249 -0.049551472 1 0 0 0
-0.3789432 0.42776528 0.5 0 0 1 0
-0.11185836 -0.5 -0.0034065859 0 -1 0 0
-0.19871779 0.5 -0.15001655 0 1 0 0
0.5 0.15757801 0.071066052 1 0 0 0
-0.5 -0.26308709 0.46775383 -1 0 0 0
-0.5 -0.081204325 -0.49569115 -1 0 0 0
0.43131539 0.5 0.20037669 0 1 0 0
0.044788174 0.24518105 -0.5 0 0 -1 0
0.41343167 0.5 -0.26273718 0 1 0 0
0.25665006 -0.5 -0.16627538 0 -1 0 0
-0.42130032 0.20526487 0.5 0 0 1 0
0.15717639 -0.5 0.19498707 0 -1 0 0
0.5 -0.048352484 -0.20856531 1 0 0 0
0.5 -0.20174922 -0.066150904 1 0 0 0
0.5 -0.29035446 -0.095895141 1 0 0 0
0.17546181 -0.41648766 -0.5 0 0 -1 0
0.32905465 0.029460432 0.5 0 0 1 0
-0.4516921 -0.5 0.41096708 0 -1 0 0
-0.17596145 0.38415372 -0.5 0 0 -1 0
-0.5 -0.17484052 0.2194286 -1 0 0 0
0.020283518 -0.5 0.49401951 0 -1 0 0
-0.5 -0.36244693 -0.076715797 -1 0 0 0
0.41782781 0.11774644 0.5 0 0 1 0
-0.13639602 -0.5 0.29834819 0 -1 0 0
-0.068376273 -0.20004684 0.5 0 0 1 0
0.5 -0.4962905 0.063812479 1 0 0 0
-0.45584646 0.4114697 -0.5 0 0 -1 0
-0.5 0.18797317 0.046826757 -1 0 0 0
0.14870404 0.5 -0.24532075 0 1 0 0
0.052797031 -0.5 0.44291094 0 -1 0 0
0.31271508 -0.5 0.041360501 0 -1 0 0
-0.43367174 0.27905264 0.5 0 0 1 0
0.41937533 0.15855065 -0.5 0 0 -1 0
-0.23820072 0.5 -0.3645727 0 1 0 0
-0.28490686 -0.42963305 0.5 0 0 1 0
-0.24736431 0.45202801 -0.5 0 0 -1 0
0.13537626 0.5 -0.42178515 0 1 0 0
0.30639806 0.5 0.36763984 0 1 0 0
-0.1614266 -0.42787135 -0.5 0 0 -1 0
0.15238589 0.33206496 0.5 0 0 1 0
-0.5 -0.20911986 -0.036187846 -1 0 0 0
-0.19411278 0.5 0.45336649 0 1 0 0
-0.37851232 0.5 -0.34325689 0 1 0 0
-0.14292611 0.15917417 -0.5 0 0 -1 0
0.5 -0.34936422 -0.015448958 1 0 0 0
0.5 -0.37233192 0.3006112 1 0 0 0
0.5 -0.22381328 0.34457213 1 0 0 0
-0.5 -0.09484861 -0.25049651 -1 0 0 0
-0.27532151 0.32879943 -0.5 0 0 -1 0
0.45595247 -0.5 -0.23976415 0 -1 0 0
-0.014306375 -0.5 -0.44723788 0 -1 0 0
0.5 -0.21196938 -0.28134909 1 0 0 0
-0.098077543 -0.38931817 0.5 0 0 1 0
0.42372671 0.5 0.42506781 0 1 0 0
0.15976202 -0.5 0.23092219 0 -1 0 0
-0.069021426 0.5 0.043129262 0 1 0 0
0.23008274 -0.5 -0.10784924 0 -1 0 0
-0.06906455 -0.5 0.35635227 0 -1 0 0
-0.41397518 -0.5 0.31905437 0 -1 0 0
-0.5 -0.19957332 -0.25508416 -1 0 0 0
0.41814074 0.5 0.13249156 0 1 0 0
0.30827871 0.46806234 0.5 0 0 1 0
-0.46441418 -0.40915078 0.5 0 0 1 0
-0.5 -0.3884649 0.26474753 -1 0 0 0
-0.41770276 -0.5 -0.33046022 0 -1 0 0
-0.29993311 -0.5 0.024160897 0 -1 0 0
0.43502733 -0.5 -0.49581084 0 -1 0 0
-0.32797787 0.32423404 -0.5 0 0 -1 0
0.44973299 0.394577 0.5 0 0 1 0
0.48908329 0.5 0.22108455 0 1 0 0
0.46544006 0.5 0.00094987149 0 1 0 0
0.5 -0.40387687 0.048991721 1 0 0 0
-0.032446269 -0.21659522 -0.5 0 0 -1 0
-0.5 0.43494487 -0.053592768 -1 0 0 0
0.083807319 0.45033911 -0.5 0 0 -1 0
0.1658714 0.19932154 -0.5 0 0 -1 0
0.10695687 0.018122736 -0.5 0 0 -1 0
-0.12352082 -0.014441196 0.5 0 0 1 0
0.5 0.46843162 -0.10141861 1 0 0 0
0.12942645 -0.064991109 -0.5 0 0 -1 0
0.49021363 0.064433023 -0.5 0 0 -1 0
0.11377355 0.091348536 0.5 0 0 1 0
-0.014475704 -0.17030667 -0.5 0 0 -1 0
-0.5 0.25876477 0.18184364 -1 0 0 0
0.5 0.10537457 0.48925415 1 0 0 0
-0.013670302 -0.41465455 -0.5 0 0 -1 0
-0.16454639 -0.5 0.23855691 0 -1 0 0
0.48375759 0.2745131 0.5 0 0 1 0
0.42239577 0.5 -0.31776997 0 1 0 0
-0.5 0.043799322 0.32099774 -1 0 0 0
0.17213745 0.14423655 0.5 0 0 1 0
0.5 -0.41901395 0.35678104 1 0 0 0
-0.17192124 0.19024701 0.5 0 0 1 0
-0.5 0.23282953 0.10138275 -1 0 0 0
0.26076454 -0.02229657 0.5 0 0 1 0
-0.5 0.48019591 0.36713362 -1 0 0 0
-0.5 0.48779097 -0.29052413 -1 0 0 0
-0.46093848 -0.5 0.0071119997 0 -1 0 0
-0.5 -0.18662377 0.27225792 -1 0 0 0
-0.12354133 0.5 -0.4278096 0 1 0 0
0.40636295 -0.13141994 0.5 0 0 1 0
0.33805007 -0.3925024 0.5 0 0 1 0
0.18716924 0.5 0.026694858 0 1 0 0
0.25337648 -0.10594677 0.5 0 0 1 0
0.4404856 0.47650284 0.5 0 0 1 0
0.5 0.15887032 -0.20754947 1 0 0 0
-0.15548225 -0.5 -0.19003664 0 -1 0 0
0.20011725 0.11724775 -0.5 0 0 -1 0
0.15419272 0.5 0.48306599 0 1 0 0
-0.18813577 -0.5 0.35528845 0 -1 0 0
-0.39808634 -0.36311641 -0.5 0 0 -1 0
0.46382076 -0.5 -0.18651617 0 -1 0 0
-0.11533453 -0.5 0.28448451 0 -1 0 0
0.18096323 0.034823835 0.5 0 0 1 0
0.35765916 0.5 -0.15160295 0 1 0 0
0.5 0.24256967 -0.38889337 1 0 0 0
-0.5 0.26250637 0.29279456 -1 0 0 0
-0.18861602 -0.069612399 0.5 0 0 1 0
-0.48044398 -0.5 0.17775305 0 -1 0 0
-0.5 0.22075641 0.026260292 -1 0 0 0
-0.15704663 0.48262244 -0.5 0 0 -1 0
0.13979729 -0.42712438 0.5 0 0 1 0
-0.3058075 0.5 -0.29352656 0 1 0 0
-0.089266382 0.5 0.30005825 0 1 0 0
0.36223435 -0.052364219 -0.5 0 0 -1 0
-0.5 -0.30928844 -0.14555301 -1 0 0 0
0.5 -0.22515765 0.24098442 1 0 0 0
0.47796008 0.5 0.26130283 0 1 0 0
-0.45996663 -0.34076813 -0.5 0 0 -1 0
0.5 0.38761324 -0.4967463 1 0 0 0
-0.050934695 -0.5 -0.059441738 0 -1 0 0
-0.23170984 -0.5 -0.34714979 0 -1 0 0
-0.5 0.13519499 0.14253515 -1 0 0 0
0.5 0.43397203 -0.29814464 1 0 0 0
0.5 -0.26080212 0.243664 1 0 0 0
0.5 -0.042345807 -0.24831975 1 0 0 0
-0.40306386 0.5 0.29458815 0 1 0 0
-0.15257654 0.35396206 -0.5 0 0 -1 0
0.37848935 -0.008574578 -0.5 0 0 -1 0
-0.03094339 0.065567411 -0.5 0 0 -1 0
0.40813112 -0.16992456 -0.5 0 0 -1 0
0.36357218 -0.5 0.40136462 0 -1 0 0
0.35555878 0.5 0.20846356 0 1 0 0
0.064418107 0.5 0.32492146 0 1 0 0
-0.13118823 -0.3966344 -0.5 0 0 -1 0
-0.11466886 -0.5 0.25069103 0 -1 0 0
0.10114747 0.3569966 0.5 0 0 1 0
0.024607705 -0.41830659 0.5 0 0 1 0
-0.5 -0.12190083 0.4091782 -1 0 0 0
0.38499317 0.5 0.35744199 0 1 0 0
-0.3972671 0.13202436 0.5 0 0 1 0
0.48615649 0.0099944165 -0.5 0 0 -1 0
0.42353278 -0.04485504 0.5 0 0 1 0
-0.0940753 -0.5 -0.12353707 0 -1 0 0
0.5 0.4864729 0.13669136 1 0 0 0
0.5 -0.1367186 -0.46628952 1 0 0 0
0.3071726 0.13340034 0.5 0 0 1 0
0.2468282 0.5 -0.011021726 0 1 0 0
-0.19147281 0.5 -0.38569084 0 1 0 0
-0.3356587 0.5 0.41563219 0 1 0 0
-0.33371878 0.18874039 0.5 0 0 1 0
0.15363961 -0.5 0.095808327 0 -1 0 0
-0.11161587 -0.18352044 -0.5 0 0 -1 0
0.21597409 0.18852428 -0.5 0 0 -1 0
-0.28147855 -0.18970184 -0.5 0 0 -1 0
0.5 0.4715448 0.22501932 1 0 0 0
-0.16183425 -0.051555976 -0.5 0 0 -1 0
0.2980696 -0.34432021 0.5 0 0 1 0
-0.19892235 -0.23939189 -0.5 0 0 -1 0
0.5 0.18476804 0.081091963 1 0 0 0
0.41117319 -0.5 -0.41194609 0 -1 0 0
-0.13447036 -0.043437518 0.5 0 0 1 0
0.16484468 -0.5 -0.45539355 0 -1 0 0
-0.030290911 0.5 -0.23563364 0 1 0 0
0.5 0.11507591 -0.3041234 1 0 0 0
0.39530352 0.042830516 -0.5 0 0 -1 0
-0.0053579765 -0.05150779 0.5 0 0 1 0
-0.35453781 0.5 -0.28315818 0 1 0 0
-0.35459554 -0.5 0.31290752 0 -1 0 0
0.13546997 -0.45159236 -0.5 0 0 -1 0
0.5 0.25983983 -0.11206116 1 0 0 0
0.40621889 -0.47418454 -0.5 0 0 -1 0
-0.38770655 -0.18370833 0.5 0 0 1 0
-0.5 -0.17607647 -0.13352628 -1 0 0 0
0.5 -0.22601469 -0.35499361 1 0 0 0
0.5 0.042282157 0.34521079 1 0 0 0
-0.5 0.044032283 -0.27208638 -1 0 0 0
0.34352338 -0.5 -0.40243816 0 -1 0 0
0.5 -0.30356437 0.34314889 1 0 0 0
0.23993717 0.16567944 -0.5 0 0 -1 0
-0.31219763 -0.10571957 0.5 0 0 1 0
0.5 0.12859322 0.19895707 1 0 0 0
-0.47487453 0.5 0.21620183 0 1 0 0
0.5 0.46437612 -0.26610661 1 0 0 0
-0.37651986 0.5 0.16951695 0 1 0 0
-0.485917 -0.5 0.19285421 0 -1 0 0
0.5 -0.2367231 -0.34188345 1 0 0 0
0.43627992 0.29628369 -0.5 0 0 -1 0
-0.5 0.015468962 0.49769789 -1 0 0 0
0.5 0.23721434 -0.40140054 1 0 0 0
-0.48519495 0.5 -0.32823455 0 1 0 0
0.29309133 -0.285209 0.5 0 0 1 0
-0.15558356 -0.5 0.10717237 0 -1 0 0
0.42670923 0.5 0.31169245 0 1 0 0
-0.5 -0.061128415 -0.32332131 -1 0 0 0
-0.5 -0.26478457 -0.15697417 -1 0 0 0
0.43577611 0.5 0.33757353 0 1 0 0
0.43401682 0.11208556 -0.5 0 0 -1 0
-0.14395706 0.5 -0.18655664 0 1 0 0
-0.1242274 0.11001392 0.5 0 0 1 0
-0.15019737 -0.5 -0.36727273 0 -1 0 0
0.084686704 0.5 -0.34932268 0 1 0 0
-0.0013302856 0.3581095 -0.5 0 0 -1 0
-0.028331522 0.5 0.1679005 0 1 0 0
0.25197625 -0.5 0.23163065 0 -1 0 0
-0.5 0.21576443 -0.068676181 -1 0 0 0
-0.5 -0.4634347 -0.29127526 -1 0 0 0
0.32460615 -0.40803042 -0.5 0 0 -1 0
0.079521231 -0.5 -0.48665228 0 -1 0 0
0.27616349 -0.5 -0.05394908 0 -1 0 0
-0.19148412 0.5 0.27378595 0 1 0 0
-0.5 0.21909235 -0.0043024863 -1 0 0 0
-0.19967556 0.052795034 0.5 0 0 1 0
0.5 0.4201245 -0.047176663 1 0 0 0
-0.45863822 -0.3326509 0.5 0 0 1 0
-0.17892475 -0.5 0.40324125 0 -1 0 0
-0.5 -0.02381222 -0.24222192 -1 0 0 0
0.5 0.40456936 0.43848369 1 0 0 0
-0.5 0.19726804 -0.3127746 -1 0 0 0
-0.5 0.39613837 0.20611286 -1 0 0 0
0.15199961 -0.34249467 0.5 0 0 1 0
0.061457008 0.5 0.092060074 0 1 0 0
-0.14203298 0.5 0.1483075 0 1 0 0
0.20466186 0.41404662 0.5 0 0 1 0
0.25783345 -0.5 -0.045440137 0 -1 0 0
0.5 -0.11252724 0.34081706 1 0 0 0
0.075470924 0.5 -0.41970637 0 1 0 0
-0.39223099 -0.5 -0.22621472 0 -1 0 0
0.25314254 -0.5 -0.43348292 0 -1 0 0
-0.26851282 0.10527265 0.5 0 0 1 0
0.5 0.041192345 -0.13908692 1 0 0 0
-0.47104207 0.19585809 0.5 0 0 1 0
0.14947712 0.5 -0.16720314 0 1 0 0
-0.28053203 -0.39842817 -0.5 0 0 -1 0
0.17885734 -0.28054029 -0.5 0 0 -1 0
-0.5 -0.077943847 0.061219852 -1 0 0 0
-0.15563206 -0.33690241 -0.5 0 0 -1 0
0.39406875 -0.5 -0.080907546 0 -1 0 0
0.26032051 0.5 -0.14179198 0 1 0 0
0.49178535 0.5 -0.38553119 0 1 0 0
-0.0029438294 -0.47694075 0.5 0 0 1 0
-0.0062117232 -0.5 -0.40042797 0 -1 0 0
-0.12201063 -0.26758817 -0.5 0 0 -1 0
0.5 -0.38422757 0.34047624 1 0 0 0
0.5 -0.33394331 -0.41927385 1 0 0 0
0.18272267 0.12769617 0.5 0 0 1 0
-0.41010663 0.5 -0.33804139 0 1 0 0
-0.4792197 -0.24570476 0.5 0 0 1 0
-0.5 0.15850097 0.41582623 -1 0 0 0
0.5 -0.070794441 -0.0085041476 1 0 0 0
0.48030925 -0.5 -0.41967994 0 -1 0 0
-0.5 0.47210252 0.40099967 -1 0 0 0
0.5 0.49927822 0.36852327 1 0 0 0
-0.41532248 0.32472935 -0.5 0 0 -1 0
0.5 0.045579255 -0.40388396 1 0 0 0
-0.5 -0.46831486 0.26039934 -1 0 0 0
-0.085459746 -0.5 -0.32199398 0 -1 0 0
0.5 0.1458334 0.23239449 1 0 0 0
-0.42684552 -0.5 0.007435326 0 -1 0 0
-0.49811998 -0.5 0.097431913 0 -1 0 0
-0.1102807 -0.48778492 0.5 0 0 1 0
0.28397965 0.5 -0.29879916 0 1 0 0
-0.40353021 0.5 0.13244651 0 1 0 0
-0.012336279 -0.29661545 -0.5 0 0 -1 0
-0.082364626 0.3730118 0.5 0 0 1 0
0.041561648 0.417983 0.5 0 0 1 0
0.48667371 -0.29462239 -0.5 0 0 -1 0
0.5 0.48191062 0.45362845 1 0 0 0
0.36348006 -0.5 0.27868494 0 -1 0 0
-0.5 -0.43021923 -0.091713585 -1 0 0 0
-0.021132329 0.5 0.17104998 0 1 0 0
-0.14590821 0.27931336 -0.5 0 0 -1 0
-0.29923385 -0.22332475 0.5 0 0 1 0
-0.29926658 0.22669281 0.5 0 0 1 0
0.047926813 -0.5 -0.49402785 0 -1 0 0
0.12902598 0.46034309 -0.5 0 0 -1 0
-0.067301378 -0.5 -0.13421954 0 -1 0 0
0.5 -0.43801311 -0.014015707 1 0 0 0
0.076504812 0.5 0.18367314 0 1 0 0
-0.10186519 -0.5 -0.048301365 0 -1 0 0
-0.079467773 0.5 -0.10998212 0 1 0 0
-0.17022294 0.45381188 0.5 0 0 1 0
0.33377123 0.5 -0.10258009 0 1 0 0
0.5 0.13077649 -0.40859318 1 0 0 0
0.5 -0.22844726 -0.24158873 1 0 0 0
0.34455729 0.2322201 0.5 0 0 1 0
-0.5 -0.36763051 -0.40241373 -1 0 0 0
0.5 0.11802578 0.15867686 1 0 0 0
0.43949282 0.32348052 0.5 0 0 1 0
0.26795202 0.5 -0.34752691 0 1 0 0
0.23505259 0.47115675 -0.5 0 0 -1 0
-0.23655877 0.5 -0.15673406 0 1 0 0
0.45645666 0.5 -0.20050235 0 1 0 0
0.18020415 -0.1635126 -0.5 0 0 -1 0
0.032760497 0.22164845 0.5 0 0 1 0
-0.5 -0.018547121 -0.44523224 -1 0 0 0
0.5 0.31763032 0.2303208 1 0 0 0
-0.039801221 -0.5 0.49646237 0 -1 0 0
-0.5 0.041882042 -0.44213471 -1 0 0 0
-0.006077833 0.1501355 -0.5 0 0 -1 0
0.5 -0.19906294 -0.34996694 1 0 0 0
0.5 0.018443601 -0.49996254 1 0 0 0
-0.5 -0.14103934 -0.27626234 -1 0 0 0
-0.5 0.35890776 -0.021560566 -1 0 0 0
0.5 0.25343284 0.1989633 1 0 0 0
0.013125797 -0.084393553 -0.5 0 0 -1 0
-0.5 0.35172111 -0.22838143 -1 0 0 0
-0.39448455 -0.1016783 0.5 0 0 1 0
-0.030535083 0.2031564 -0.5 0 0 -1 0
-0.5 0.24405363 0.44647673 -1 0 0 0
0.28261882 0.5 -0.17736895 0 1 0 0
-0.5 0.38234103 0.11189733 -1 0 0 0
-0.039228808 0.31855905 -0.5 0 0 -1 0
-0.47574496 -0.5 0.15463136 0 -1 0 0
-0.26670292 0.47586057 -0.5 0 0 -1 0
0.5 -0.33278042 0.41895238 1 0 0 0
-0.19421528 -0.48284709 -0.5 0 0 -1 0
-0.5 0.36280811 0.42146498 -1 0 0 0
0.5 -0.093111254 0.0061339391 1 0 0 0
0.35306656 -0.41939238 -0.5 0 0 -1 0
0.49988052 0.5 0.28296047 0 1 0 0
0.33768764 0.5 0.48399258 0 1 0 0
-0.5 0.4384864 0.42051783 -1 0 0 0
0.22025269 0.5 0.17858878 0 1 0 0
-0.38424441 0.5 -0.0039931536 0 1 0 0
0.044780105 -0.5 0.015674394 0 -1 0 0
0.10357518 -0.21181501 0.5 0 0 1 0
0.04149469 -0.3956722 -0.5 0 0 -1 0
-0.26942068 -0.40479353 -0.5 0 0 -1 0
-0.35121655 0.5 -0.10312469 0 1 0 0
0.43156454 0.5 -0.33954477 0 1 0 0
