# .PCD v0.7 - Point Cloud Data file format
VERSION 0.7
FIELDS x y z normal_x normal_y normal_z curvature
SIZE 4 4 4 4 4 4 4
TYPE F F F F F F F
COUNT 1 1 1 1 1 1 1
WIDTH 1129
HEIGHT 1
VIEWPOINT 0 0 0 1 0 0 0
POINTS 1129
DATA ascii
0.26183727 0.6761077 0.60791367 0 0 0 0
-0.80048382 0.19578704 0.25810674 0 0 0 0
-0.14212838 0.54623586 -0.78558552 0 0 0 0
0.47650325 0.068626352 0.66499954 0 0 0 0
-0.05231715 0.096961007 0.73884338 0 0 0 0
-0.75137395 0.39196742 0.27597597 0 0 0 0
-0.62003297 0.63966715 -0.47895905 0 0 0 0
-0.13700253 -0.37827677 -0.092280164 0 0 0 0
-0.032573517 0.94099611 0.088892683 0 0 0 0
-0.03846122 0.14320348 -0.81970686 0 0 0 0
-0.42013651 0.70411342 -0.51926154 0 0 0 0
-0.15019207 0.95686942 -0.12243081 0 0 0 0
-0.24723619 -0.27173358 -0.37854514 0 0 0 0
1.2075965 0.38583797 -0.40089518 0 0 0 0
0.22264819 0.89987093 -0.37468931 0 0 0 0
-0.14764743 -0.7714532 0.71220773 0 0 0 0
0.12724252 -0.27741855 -0.4528062 0 0 0 0
0.085775673 -0.85927671 0.70263481 0 0 0 0
0.039133202 -0.45772254 0.23078704 0 0 0 0
-0.13454257 0.55218101 0.80475718 0 0 0 0
-0.084844716 0.95321399 -0.18545859 0 0 0 0
0.055013128 -0.83893663 0.63635981 0 0 0 0
1.1928719 0.27311972 -0.46320054 0 0 0 0
-0.22965223 -0.81139863 0.67767888 0 0 0 0
0.75169307 0.11222003 0.41786385 0 0 0 0
0.60256594 0.75397545 0.0033829003 0 0 0 0
-0.68151641 -0.031248936 0.19741955 0 0 0 0
0.058367975 -0.8955853 0.68288487 0 0 0 0
0.24375306 -0.047226693 0.74629802 0 0 0 0
0.84689689 0.29498789 0.038207505 0 0 0 0
-0.86835027 -0.015488627 -0.38182828 0 0 0 0
-0.79738551 0.31804621 -0.32106489 0 0 0 0
-0.2590594 -0.48877239 0.64984953 0 0 0 0
-0.90556228 0.055204116 -0.40736449 0 0 0 0
0.23703605 -0.93765759 0.58550775 0 0 0 0
0.080365315 0.70052761 0.42717594 0 0 0 0
-0.6745218 0.44246325 0.38542545 0 0 0 0
-0.75073743 0.26640204 -0.45565888 0 0 0 0
0.58153361 0.30177689 0.60162097 0 0 0 0
0.15953496 0.7186572 -0.619317 0 0 0 0
-0.14243937 -0.20425211 0.72725111 0 0 0 0
-0.17587887 0.92883521 -0.25122875 0 0 0 0
-0.23515205 -0.17169882 -0.56658107 0 0 0 0
-0.80928546 0.54084009 -0.026178047 0 0 0 0
0.82842094 0.34964928 0.50714588 0 0 0 0
-0.38950625 0.039727982 0.69683617 0 0 0 0
0.67915058 0.43349472 0.33600253 0 0 0 0
-0.22015083 -0.28583863 -0.37195626 0 0 0 0
0.27904096 -0.54910177 0.62945229 0 0 0 0
-0.050421346 0.76558101 -0.63873398 0 0 0 0
-0.14326765 0.72191054 -0.625606 0 0 0 0
-1.1359305 0.30394962 -0.50381655 0 0 0 0
0.58480871 0.079119787 -0.50326931 0 0 0 0
0.74073887 0.46060318 0.5785374 0 0 0 0
0.23102117 -0.87249166 0.39781067 0 0 0 0
-0.302053 0.2887671 0.82381743 0 0 0 0
-0.28589469 -0.7915889 0.38673523 0 0 0 0
-0.63021982 0.7482847 -0.12604456 0 0 0 0
-0.52272159 0.50216168 0.77227676 0 0 0 0
-0.75934738 0.62996262 -0.041075058 0 0 0 0
0.051106106 -0.47725227 0.28631955 0 0 0 0
0.025413858 0.92338103 -0.39205939 0 0 0 0
-0.59685564 -0.018013315 0.36324027 0 0 0 0
-0.076782867 0.96439463 -0.13042474 0 0 0 0
-0.53129345 0.43266907 0.59810007 0 0 0 0
0.28649265 0.71281147 -0.56804061 0 0 0 0
0.42838848 0.068851873 0.70610857 0 0 0 0
0.75620711 0.34159112 0.37682021 0 0 0 0
-0.053397253 -0.77785528 0.35174638 0 0 0 0
0.26038584 -0.52530527 0.40597984 0 0 0 0
0.0336226 0.9301154 0.13479289 0 0 0 0
-0.42226121 -0.17559665 0.037297323 0 0 0 0
-0.37782601 -0.12127966 -0.50920075 0 0 0 0
-0.10636901 0.17301591 0.75614578 0 0 0 0
0.24242553 -0.33692056 -0.19070685 0 0 0 0
0.79317743 0.54916656 -0.33964294 0 0 0 0
0.45347357 0.61960572 0.65613544 0 0 0 0
0.88647848 -0.015271418 -0.26883754 0 0 0 0
-0.23848738 -0.75245571 0.37885395 0 0 0 0
-0.15073065 -0.2967101 -0.40250272 0 0 0 0
0.11493079 -0.38107768 -0.11776225 0 0 0 0
0.04440571 0.2669878 0.77447045 0 0 0 0
0.042962711 -0.15490936 0.81426442 0 0 0 0
0.23359652 -0.29965982 -0.33615556 0 0 0 0
0.20007169 0.74253267 0.34598517 0 0 0 0
0.68749672 0.69232541 -0.22716025 0 0 0 0
-1.3272986 0.18107769 -0.47028276 0 0 0 0
0.49392852 -0.14151667 -0.26805365 0 0 0 0
0.65819579 0.27504888 0.6386745 0 0 0 0
0.81311959 0.50341994 0.063198775 0 0 0 0
-0.91239077 0.41382736 -0.34265065 0 0 0 0
-0.02032608 -0.40622675 -0.14551137 0 0 0 0
0.50801808 0.65605283 0.29458201 0 0 0 0
-0.14625104 -0.84615618 0.69572461 0 0 0 0
-0.39046624 -0.20101583 -0.29604542 0 0 0 0
0.19915856 -0.064995497 -0.65655327 0 0 0 0
-0.8000313 -0.089101084 -0.13385391 0 0 0 0
0.36148089 -0.10657578 0.60705668 0 0 0 0
0.13004605 -0.20398834 0.73377532 0 0 0 0
0.17150071 0.37818992 0.70537502 0 0 0 0
-0.10415976 -0.55825865 0.35304639 0 0 0 0
-0.34186283 -0.14050847 -0.54468191 0 0 0 0
0.07217925 -0.39001051 -0.1439023 0 0 0 0
-0.47046223 0.34869596 0.72772652 0 0 0 0
0.39417639 0.63699502 0.58243805 0 0 0 0
0.79247624 0.14746386 0.20773587 0 0 0 0
-0.22946726 -0.92458642 0.614869 0 0 0 0
-0.43473095 0.40686417 0.75093573 0 0 0 0
0.12047441 -0.70482284 0.7317633 0 0 0 0
-0.41348031 0.54458582 0.56588036 0 0 0 0
1.2566316 0.20522815 -0.52814269 0 0 0 0
-0.61347383 0.53737968 -0.51961851 0 0 0 0
0.24824916 -0.34160584 -0.14130355 0 0 0 0
0.11302252 -0.68523592 0.73450452 0 0 0 0
-0.085329898 -0.29248568 -0.45302364 0 0 0 0
0.73132604 -0.045941871 0.077745534 0 0 0 0
-0.1940596 0.66880447 0.40977082 0 0 0 0
0.68066275 0.65012956 -0.40026626 0 0 0 0
-0.5131219 -0.005447574 -0.48734489 0 0 0 0
0.078304388 0.52599686 0.74708515 0 0 0 0
-0.10399674 0.83747566 0.30661261 0 0 0 0
0.30691409 0.69758332 0.7859683 0 0 0 0
-0.25701371 0.67500448 0.37976295 0 0 0 0
0.19445671 0.4071416 -0.78405386 0 0 0 0
0.099656075 0.81613123 -0.56759298 0 0 0 0
-0.013939458 0.97176117 -0.032073181 0 0 0 0
0.43618262 -0.18037739 -0.23270875 0 0 0 0
0.30065161 -0.85081279 0.3917025 0 0 0 0
-0.54419941 0.52562672 -0.59172004 0 0 0 0
-0.7374751 0.36334923 0.334068 0 0 0 0
-0.42843509 -0.12937541 0.30469769 0 0 0 0
0.33096996 -0.20523447 -0.43572411 0 0 0 0
-0.063708894 0.83320993 -0.56984901 0 0 0 0
-0.59458762 0.24116398 0.61506033 0 0 0 0
-0.29324138 -0.15977108 -0.55098206 0 0 0 0
1.0470372 0.26851922 -0.48964819 0 0 0 0
0.76679885 0.3284156 -0.43192959 0 0 0 0
0.39403167 0.078767888 -0.63390768 0 0 0 0
-0.71040696 0.68506444 -0.13044238 0 0 0 0
1.2424002 0.49027407 -0.46363321 0 0 0 0
-0.79682744 0.24659838 -0.41032413 0 0 0 0
-0.38606134 0.92026168 -0.159069 0 0 0 0
-1.2643164 0.03707137 -0.48108709 0 0 0 0
0.56885231 0.022857694 -0.49034739 0 0 0 0
-0.85045445 0.23223968 0.056218352 0 0 0 0
0.40103516 0.61681086 0.57548809 0 0 0 0
0.17140403 0.79036975 -0.55728722 0 0 0 0
0.18299563 -0.25147957 0.67250323 0 0 0 0
-0.12874401 0.87435049 0.27998102 0 0 0 0
0.21056361 0.2751888 -0.77279156 0 0 0 0
-0.25942129 0.69638371 -0.59161794 0 0 0 0
-0.1181059 -0.90929621 0.6602574 0 0 0 0
0.4971841 0.41710237 -0.67427701 0 0 0 0
-0.86456764 -0.052407678 -0.37872121 0 0 0 0
0.41884163 0.34386989 -0.69906038 0 0 0 0
0.50248587 -0.086152598 0.28499633 0 0 0 0
0.053085696 -0.22955841 -0.58049387 0 0 0 0
-0.23611833 0.48610103 0.55790156 0 0 0 0
-0.22385348 -0.027896555 -0.66715533 0 0 0 0
-0.08752057 0.58557093 -0.78092641 0 0 0 0
0.08766003 -0.30001855 0.74196047 0 0 0 0
-0.2770246 0.57421458 0.45830488 0 0 0 0
0.80313104 0.51150852 -0.22853835 0 0 0 0
0.65498376 0.71860319 -0.085775845 0 0 0 0
-0.19113517 0.88064134 0.2575497 0 0 0 0
1.2659267 0.042863924 -0.45132408 0 0 0 0
0.55605531 0.80692285 -0.25954884 0 0 0 0
0.11222754 -0.54256606 0.73830909 0 0 0 0
0.44084525 -0.061183702 -0.47560564 0 0 0 0
-0.82855666 0.30077755 -0.15311849 0 0 0 0
0.48333693 -0.094039731 0.30814493 0 0 0 0
-0.56471282 0.79219174 0.014456166 0 0 0 0
0.077148505 -0.44163597 0.2209844 0 0 0 0
0.072227918 0.23022702 0.76288897 0 0 0 0
0.56840861 -0.07580319 0.21965715 0 0 0 0
0.4854998 0.85885412 -0.29093495 0 0 0 0
0.24541683 0.043457106 0.6795525 0 0 0 0
-0.5793246 0.43549371 0.7314896 0 0 0 0
0.1892795 -0.86261904 0.67259425 0 0 0 0
-0.75153935 0.24848688 0.60114729 0 0 0 0
-0.5409205 0.72462851 0.19934782 0 0 0 0
-0.32961094 -0.26704407 -0.06315349 0 0 0 0
0.91881281 0.072486401 -0.33273798 0 0 0 0
0.27121025 -0.88403475 0.39583188 0 0 0 0
-0.11394125 0.54958773 0.6892041 0 0 0 0
-0.83358037 0.092473887 -0.32072982 0 0 0 0
0.27699572 -0.16929929 0.47852528 0 0 0 0
0.40490669 0.34229103 0.79320133 0 0 0 0
0.0024803707 -0.82341063 0.35648337 0 0 0 0
-0.83741057 -0.029667731 -0.2243093 0 0 0 0
0.1041275 0.64202338 0.46800157 0 0 0 0
-0.71545798 0.036787182 0.25828916 0 0 0 0
0.2636914 0.13127467 -0.71820837 0 0 0 0
-0.53011054 -0.046300467 0.4508954 0 0 0 0
-0.066486202 -0.96708566 0.46585143 0 0 0 0
0.41460067 0.23990339 -0.67291832 0 0 0 0
0.78208011 -0.11545247 -0.33395484 0 0 0 0
0.34561965 -0.76972187 0.52102673 0 0 0 0
-0.56003016 -0.026425099 0.41313046 0 0 0 0
0.59676957 0.1722963 0.65844911 0 0 0 0
0.14342126 -0.44303939 0.27601966 0 0 0 0
0.2308203 0.17522593 -0.74518973 0 0 0 0
-0.20765132 0.61436772 0.8488335 0 0 0 0
-0.36328095 0.23856419 -0.6984024 0 0 0 0
-1.3095781 0.34569424 -0.41391504 0 0 0 0
0.23424779 0.90563619 0.12649326 0 0 0 0
-0.30928165 -0.51046473 0.53467524 0 0 0 0
-0.14346531 -0.55760175 0.36207628 0 0 0 0
0.67810392 0.38461584 0.67637074 0 0 0 0
0.63243836 0.41304025 0.71719176 0 0 0 0
-0.33883938 -0.69716346 0.53289706 0 0 0 0
0.37805748 0.78500193 -0.47577462 0 0 0 0
0.23649926 -0.45855018 0.67733169 0 0 0 0
0.07370583 0.87069368 -0.53725177 0 0 0 0
-1.1557963 0.066604145 -0.50789267 0 0 0 0
0.30841571 -0.44693777 0.55654454 0 0 0 0
-0.1456866 0.71168077 -0.63351023 0 0 0 0
0.35953483 0.69579577 -0.5506137 0 0 0 0
0.09375 -0.81139708 0.67394716 0 0 0 0
-0.3482337 -0.72498333 0.57143587 0 0 0 0
0.88372922 0.08887323 -0.32670704 0 0 0 0
0.41822013 0.79080307 0.27718326 0 0 0 0
0.76576036 0.38265121 0.40130958 0 0 0 0
0.10431463 0.043008715 -0.76397359 0 0 0 0
-1.1881082 0.3336938 -0.48126447 0 0 0 0
-0.93521833 0.094005592 -0.33813599 0 0 0 0
-0.27833971 -0.30648488 -0.29051387 0 0 0 0
0.75789714 0.29219508 0.3231461 0 0 0 0
-0.30472347 -0.94158244 0.54281586 0 0 0 0
0.20367062 0.51472169 0.59900743 0 0 0 0
0.23351298 -0.68174189 0.69406003 0 0 0 0
0.77988583 0.45086724 0.58501887 0 0 0 0
0.82814908 0.29039663 0.48856562 0 0 0 0
-0.77805215 0.5734449 -0.31179816 0 0 0 0
0.29068959 -0.50437838 0.49055874 0 0 0 0
0.19743855 -0.37177464 0.2854704 0 0 0 0
0.43930319 0.37951121 0.73648834 0 0 0 0
0.21121724 0.35567746 0.75446856 0 0 0 0
-0.79426503 0.14907371 0.20040141 0 0 0 0
-0.22015628 -0.3097142 0.4110463 0 0 0 0
-0.020119483 0.28042558 -0.83191085 0 0 0 0
0.23110159 0.79869062 0.30664364 0 0 0 0
0.69633311 0.036980804 0.29594973 0 0 0 0
0.054409239 0.61531919 0.51039267 0 0 0 0
-0.37233236 -0.22429776 -0.053693496 0 0 0 0
0.15729491 -0.82009119 0.38909611 0 0 0 0
-0.20807938 -0.37418583 0.34042332 0 0 0 0
-0.54963726 -0.00077104807 0.61977202 0 0 0 0
0.69887561 -0.063275933 -0.37153652 0 0 0 0
0.54349101 0.73642331 0.18505797 0 0 0 0
-1.2583696 0.46729609 -0.44075906 0 0 0 0
0.35293341 -0.0065691392 0.69202805 0 0 0 0
1.3033217 0.3939968 -0.45298702 0 0 0 0
-0.785344 0.12350705 0.19060028 0 0 0 0
-1.3539389 0.31634545 -0.49903655 0 0 0 0
-0.23359962 -0.2992568 0.59318101 0 0 0 0
1.1104971 0.060227167 -0.50124377 0 0 0 0
0.38183504 0.13737097 0.78576458 0 0 0 0
0.20433754 -0.25368899 -0.44388494 0 0 0 0
0.26983285 -0.24783523 0.37523413 0 0 0 0
-0.80143237 0.30309832 -0.31866693 0 0 0 0
0.19269869 0.21048896 0.76304054 0 0 0 0
0.79318553 0.21846029 0.26425061 0 0 0 0
0.63168883 -0.02459953 -0.39500633 0 0 0 0
-0.24791087 0.54848409 -0.72346288 0 0 0 0
0.71005923 0.43917418 0.47487748 0 0 0 0
-0.34315136 0.082937464 0.74970657 0 0 0 0
0.35936099 0.87509841 0.18657154 0 0 0 0
0.65622574 0.69182748 0.049560126 0 0 0 0
0.32520851 -0.62969464 0.58903044 0 0 0 0
0.10882925 0.10561012 0.74144107 0 0 0 0
-0.19670835 -0.69431531 0.7064057 0 0 0 0
0.099001527 -0.05242265 0.78676218 0 0 0 0
-0.65229112 0.012895604 0.46229321 0 0 0 0
-0.0038675491 -0.41376242 -0.12954147 0 0 0 0
0.26913491 -0.57765824 0.64643466 0 0 0 0
0.46298233 0.90289235 -0.16362873 0 0 0 0
-0.56583971 -0.038558014 -0.41077101 0 0 0 0
0.83403683 0.0043309662 -0.29986408 0 0 0 0
0.66104865 0.095089681 0.6018613 0 0 0 0
-0.70401436 -0.007381354 -0.39948347 0 0 0 0
-0.21518366 -0.21693227 0.47251523 0 0 0 0
-0.29354018 0.13274989 -0.70436865 0 0 0 0
-0.5273841 0.52180988 -0.60954386 0 0 0 0
-0.27754691 -0.49586305 0.4609665 0 0 0 0
0.87651789 0.33859217 -0.2123927 0 0 0 0
-0.81550664 0.22435404 -0.099511154 0 0 0 0
0.042672049 0.342242 0.80554551 0 0 0 0
0.29179281 -0.30232519 0.10492394 0 0 0 0
-0.53672647 0.59587109 0.2999095 0 0 0 0
0.79664952 0.45287785 -0.34665009 0 0 0 0
0.011701765 -0.71559864 0.33718133 0 0 0 0
0.25663912 -0.3312816 0.18199188 0 0 0 0
0.061596729 -0.24574421 -0.54757208 0 0 0 0
-0.41457775 0.54125988 0.43259683 0 0 0 0
-0.52582365 -0.14512129 -0.085179225 0 0 0 0
-0.79734123 0.13781282 0.15068816 0 0 0 0
0.14271985 0.36845931 -0.79820472 0 0 0 0
-0.62594157 0.70622784 0.07604672 0 0 0 0
1.1634163 0.070065938 -0.4527407 0 0 0 0
0.40026575 -0.21969286 -0.20983702 0 0 0 0
-0.56511158 -0.10085952 -0.2768825 0 0 0 0
1.2030987 0.48881501 -0.45624092 0 0 0 0
-0.90560508 -0.071774669 -0.20190749 0 0 0 0
0.80561388 0.50698972 -0.15672228 0 0 0 0
-0.32427081 0.91411996 -0.2281301 0 0 0 0
0.30282676 0.42463914 0.765872 0 0 0 0
-0.18331946 0.91754103 0.10428458 0 0 0 0
-0.67843735 -0.1001051 -0.28326347 0 0 0 0
0.86018896 0.077806376 -0.37809879 0 0 0 0
0.38163486 0.89992857 0.078164376 0 0 0 0
0.16641393 0.5331527 0.53446031 0 0 0 0
0.41505226 0.42102158 0.74527991 0 0 0 0
-0.48135459 -0.15994483 -0.051586624 0 0 0 0
-0.68091625 -0.044063773 -0.10911819 0 0 0 0
0.30276045 -0.29416376 0.0078798346 0 0 0 0
0.19261494 0.63211995 0.614079 0 0 0 0
-1.1948755 0.13501814 -0.4646906 0 0 0 0
0.83444089 -0.015625 -0.30082515 0 0 0 0
0.28786314 -0.58497369 0.6238969 0 0 0 0
-0.64693213 0.018060155 0.56330824 0 0 0 0
-0.72473961 0.078597225 0.31567934 0 0 0 0
-0.21786459 0.74943149 0.33859763 0 0 0 0
0.97587258 -0.011049392 -0.45217746 0 0 0 0
-0.03804088 -0.24538614 0.81141216 0 0 0 0
0.40556985 0.061808705 0.71263677 0 0 0 0
0.1316537 0.62007618 -0.72456372 0 0 0 0
0.045320909 -0.3887088 -0.21167319 0 0 0 0
-0.74545062 0.071227364 0.48651895 0 0 0 0
0.39249685 -0.20319279 -0.28574088 0 0 0 0
-0.38217023 -0.12142143 0.47126153 0 0 0 0
-0.84966391 0.31974068 -0.084053256 0 0 0 0
-0.30700624 0.35190064 0.80727321 0 0 0 0
0.19328697 0.29689601 0.76086241 0 0 0 0
-0.11333281 -0.17943786 0.79881895 0 0 0 0
0.11224209 0.49812967 -0.81380063 0 0 0 0
-0.16297027 0.78575075 0.32685101 0 0 0 0
-0.31743559 -0.29388803 -0.25322554 0 0 0 0
0.13589472 0.49194899 0.57643473 0 0 0 0
-0.35841754 0.086149029 -0.66053045 0 0 0 0
-0.53943539 -0.098738879 0.18845406 0 0 0 0
-0.31912047 0.22925229 0.82572979 0 0 0 0
-0.1623311 -0.96656781 0.56390053 0 0 0 0
-1.2253036 0.19883049 -0.51933903 0 0 0 0
-0.46656212 -0.10785614 0.5544225 0 0 0 0
-0.061480485 0.51800323 0.58550858 0 0 0 0
-0.22632435 0.94409466 -0.02365764 0 0 0 0
0.19063626 0.69948739 0.77686793 0 0 0 0
-0.47171029 0.87292582 -0.2774581 0 0 0 0
-0.42056295 -0.063509785 0.63768148 0 0 0 0
-0.6629917 -0.049411744 0.16626647 0 0 0 0
-0.60986817 -0.11385675 -0.14265159 0 0 0 0
0.15618931 0.71910399 -0.62081212 0 0 0 0
-0.23037019 0.57812649 0.82300681 0 0 0 0
0.83732146 0.35239372 -0.34709477 0 0 0 0
-0.14828956 -0.44123837 0.72908181 0 0 0 0
-0.11724858 -0.7933628 0.37272966 0 0 0 0
-0.80041009 0.51160908 -0.32228094 0 0 0 0
-0.66576511 0.45592844 0.46629167 0 0 0 0
0.7981683 0.18314731 0.26521525 0 0 0 0
0.20864174 -0.10696834 0.72375602 0 0 0 0
-1.1526405 0.4124026 -0.38771516 0 0 0 0
-0.39421496 -0.16157036 -0.37792093 0 0 0 0
-0.32352838 0.57226443 0.44173542 0 0 0 0
0.079038821 0.36358675 -0.81765777 0 0 0 0
-0.67055482 0.46724865 0.68090922 0 0 0 0
-0.18656936 -0.60422182 0.71337259 0 0 0 0
0.48644972 0.69393176 0.29514089 0 0 0 0
-0.79445386 0.40795746 -0.35085559 0 0 0 0
-0.42563465 0.13144141 0.74954963 0 0 0 0
0.34937268 -0.91517156 0.52610981 0 0 0 0
-0.23620594 -0.64283842 0.69460446 0 0 0 0
0.70945328 0.46381271 0.55714244 0 0 0 0
-0.27820572 0.15861386 0.80236518 0 0 0 0
-0.0094884392 0.79369462 0.37511998 0 0 0 0
-0.82245445 0.25659859 0.13465446 0 0 0 0
0.49591601 -0.065723695 0.41989481 0 0 0 0
0.14169756 -0.39575779 0.047919739 0 0 0 0
0.0066713034 0.047948319 0.72727597 0 0 0 0
-0.47066718 0.55212802 -0.61271626 0 0 0 0
-0.35056534 0.92602074 -0.15230554 0 0 0 0
0.82401443 0.17270018 0.048776958 0 0 0 0
-1.1052655 0.38666549 -0.50211781 0 0 0 0
0.17874494 0.90507448 0.16012523 0 0 0 0
0.8105824 0.17468697 0.16239692 0 0 0 0
0.20550542 0.6046958 -0.69656622 0 0 0 0
-1.0459431 0.18880607 -0.49032307 0 0 0 0
0.75966316 0.34804505 0.63348556 0 0 0 0
-0.24782629 0.0092159826 0.73487437 0 0 0 0
1.2730292 0.35511908 -0.4070873 0 0 0 0
0.13821746 -0.42509604 0.73092699 0 0 0 0
-0.09278851 0.46533933 -0.81825274 0 0 0 0
0.52006173 0.25919226 0.70600343 0 0 0 0
0.18063036 -0.85469621 0.39897835 0 0 0 0
-0.80081606 0.51831543 -0.28745812 0 0 0 0
0.30533478 -0.44190237 0.58068573 0 0 0 0
-0.6346401 0.47625819 0.50571328 0 0 0 0
-0.27071759 -0.22254919 0.44829851 0 0 0 0
0.043877579 0.50052994 -0.83504772 0 0 0 0
-0.028159309 -0.25729132 -0.548554 0 0 0 0
0.77779138 0.2099575 0.32301491 0 0 0 0
-0.16650003 -0.70346171 0.71609974 0 0 0 0
-0.64391607 0.48316035 0.53801179 0 0 0 0
-0.25394422 0.091405034 -0.71258152 0 0 0 0
0.28961742 -0.30608225 0.074290216 0 0 0 0
-0.28134358 0.85757291 -0.46116945 0 0 0 0
0.15615351 -0.70393836 0.71960628 0 0 0 0
-0.60831642 0.053424679 -0.47684997 0 0 0 0
0.26489413 -0.31247157 0.20663857 0 0 0 0
0.47176045 0.60672587 0.66004175 0 0 0 0
0.38293532 0.67692286 0.73646367 0 0 0 0
0.61578715 0.10717928 -0.49437594 0 0 0 0
0.7308225 0.22732465 -0.45527679 0 0 0 0
-0.02156923 -0.46317071 0.22737896 0 0 0 0
-0.81108201 0.16254343 0.12704599 0 0 0 0
0.29583573 0.32428139 -0.74877006 0 0 0 0
0.54691249 0.30142462 0.66205794 0 0 0 0
0.035194594 -0.52856791 0.74444962 0 0 0 0
-0.3519274 0.91473925 -0.20786759 0 0 0 0
-0.80953372 -0.059512779 -0.1474202 0 0 0 0
-0.10463097 -0.58805251 0.3535873 0 0 0 0
-0.4150795 -0.11315075 0.57685059 0 0 0 0
-0.093627684 -0.53682989 0.34499142 0 0 0 0
0.7756927 0.15218046 0.32896858 0 0 0 0
-0.30866063 -0.17448543 0.46531683 0 0 0 0
0.6439929 0.20602044 -0.5147742 0 0 0 0
-0.57899928 0.083915465 0.64463001 0 0 0 0
0.21365517 -0.31440362 0.39544693 0 0 0 0
-0.4288474 0.059906695 0.69526559 0 0 0 0
-0.022182003 -0.34921533 -0.39521873 0 0 0 0
-0.58547819 -0.017372094 0.38188219 0 0 0 0
0.2552518 0.56574011 0.47410899 0 0 0 0
0.94494665 -0.10746543 -0.35878783 0 0 0 0
0.20658207 -0.23780508 -0.47134316 0 0 0 0
0.56378216 0.33281606 0.61344171 0 0 0 0
-0.6869362 0.42760304 0.32488665 0 0 0 0
-0.74922651 0.59522498 0.11265171 0 0 0 0
-0.17693768 -0.26810572 -0.43694198 0 0 0 0
-0.33487907 0.063684925 -0.66688412 0 0 0 0
0.75794399 0.03995426 0.0018406698 0 0 0 0
0.18765597 0.23857991 0.76669401 0 0 0 0
-0.32939166 0.14077756 0.78505367 0 0 0 0
-0.14059676 -0.55454165 0.36167082 0 0 0 0
-0.14138883 0.37403208 0.66571301 0 0 0 0
-0.75925499 0.35317567 0.26898322 0 0 0 0
0.15357007 0.88553488 -0.49301282 0 0 0 0
0.89778924 0.33453408 -0.21917905 0 0 0 0
0.32007036 0.56726694 0.44737539 0 0 0 0
0.0087672351 -0.42617083 -0.033199865 0 0 0 0
0.077593543 0.38638008 -0.81918991 0 0 0 0
0.22562985 0.89746273 0.16626583 0 0 0 0
-0.2293703 0.48232633 0.54832679 0 0 0 0
-0.094310589 0.95773017 -0.15383658 0 0 0 0
0.41052303 -0.19150613 -0.045546733 0 0 0 0
0.47456238 0.04664873 0.6287151 0 0 0 0
-0.10414639 -0.36528853 -0.26521453 0 0 0 0
0.27178001 -0.7992481 0.65790075 0 0 0 0
-0.13209333 -0.14857121 0.77258503 0 0 0 0
-0.80557191 0.5372234 0.06377726 0 0 0 0
0.51442623 -0.13833794 0.038976826 0 0 0 0
-0.54385221 0.77850634 -0.40578109 0 0 0 0
0.11975525 0.4855465 0.83013606 0 0 0 0
-0.70266426 0.067918167 0.42595923 0 0 0 0
-0.32463598 -0.78943914 0.45183313 0 0 0 0
0.39383629 0.67090821 0.66555899 0 0 0 0
0.79183793 -0.031645525 -0.2108179 0 0 0 0
0.07510969 -0.93948746 0.63492286 0 0 0 0
-0.95882577 0.062278636 -0.44229728 0 0 0 0
0.9983657 0.33098775 -0.46850887 0 0 0 0
0.44283172 0.82278848 -0.42050543 0 0 0 0
-0.80784976 0.55180442 -0.046148527 0 0 0 0
-0.66004819 -0.069430009 -0.10024995 0 0 0 0
-0.20015498 0.041317217 0.64919722 0 0 0 0
-1.2820286 0.42921111 -0.44280848 0 0 0 0
-0.41604897 -0.19431971 -0.10759033 0 0 0 0
-0.20246626 -0.55372077 0.37567979 0 0 0 0
0.19211297 -0.44410554 0.71639115 0 0 0 0
-0.12232092 0.86967415 0.28395849 0 0 0 0
0.32454908 0.54456687 0.7814104 0 0 0 0
0.46390215 0.2389773 -0.64542651 0 0 0 0
0.42469969 0.87665117 -0.35313919 0 0 0 0
0.20573938 0.808595 -0.52934909 0 0 0 0
-0.65439284 -0.085880511 -0.0037655691 0 0 0 0
-0.40170079 0.093095005 0.73558182 0 0 0 0
0.53858668 0.012531045 -0.50611037 0 0 0 0
0.55876076 0.10831013 0.65679467 0 0 0 0
0.67682695 0.040127922 0.44306013 0 0 0 0
-0.69214815 0.076944239 0.37627751 0 0 0 0
-0.041018188 0.9470492 -0.25143981 0 0 0 0
-0.0039520874 0.29893881 -0.83779007 0 0 0 0
0.31350422 -0.28909081 -0.15534481 0 0 0 0
-0.93343544 -0.015554436 -0.42436457 0 0 0 0
-0.77817303 0.0015958555 -0.24127068 0 0 0 0
0.29134154 0.88842696 -0.38639849 0 0 0 0
-1.0180904 -0.063940987 -0.29958981 0 0 0 0
-0.24426085 0.68848979 0.6398257 0 0 0 0
-0.39417124 0.63778323 -0.57995659 0 0 0 0
-0.43952346 0.7286309 0.31056872 0 0 0 0
0.0032448454 -0.30287874 0.7931084 0 0 0 0
0.17965755 -0.22781204 -0.5050894 0 0 0 0
0.037503287 -0.39715379 -0.17051537 0 0 0 0
-0.25135744 0.12920159 0.77077574 0 0 0 0
0.52569282 -0.053321432 0.38465407 0 0 0 0
0.81608319 0.50483656 -0.0020825912 0 0 0 0
-0.59744281 0.72501761 -0.42328256 0 0 0 0
-1.1296912 0.12973505 -0.43363029 0 0 0 0
-0.092055008 -0.87229294 0.69363421 0 0 0 0
-0.70197105 0.66286415 -0.2750802 0 0 0 0
-0.15324019 0.54861844 -0.77711314 0 0 0 0
-0.15686435 0.58241773 0.62310922 0 0 0 0
0.14694479 0.014699541 -0.72766799 0 0 0 0
0.32416847 -0.90493435 0.55885023 0 0 0 0
-0.62142533 0.25807533 0.65839607 0 0 0 0
-0.85507393 0.11400575 -0.32317156 0 0 0 0
-0.34740713 -0.011047427 -0.61766112 0 0 0 0
-0.41215596 0.60895693 0.38732481 0 0 0 0
-1.0714819 0.053942487 -0.42183912 0 0 0 0
0.6545468 0.47945333 0.54008484 0 0 0 0
-0.096105069 0.57000232 0.53288054 0 0 0 0
-0.24677043 0.31566161 -0.76352662 0 0 0 0
-0.04674086 0.89852792 0.26237625 0 0 0 0
-0.038092937 0.72861147 -0.67926681 0 0 0 0
-0.36259371 0.692487 0.65749586 0 0 0 0
0.0034125603 0.94420809 0.091577843 0 0 0 0
-1.1380665 0.49040747 -0.38573834 0 0 0 0
-1.1044319 0.014131149 -0.35539857 0 0 0 0
0.11535759 -0.92584872 0.64377612 0 0 0 0
-0.62287372 0.45991778 -0.53627145 0 0 0 0
0.18653856 -0.10731347 0.74354297 0 0 0 0
-0.27663252 -0.3210305 0.065878555 0 0 0 0
0.45996803 0.75239593 0.28839192 0 0 0 0
-1.289711 0.35529351 -0.41016769 0 0 0 0
-0.74971366 0.31038001 0.35957092 0 0 0 0
0.31467834 0.49700946 0.75680107 0 0 0 0
-0.26746333 0.10169337 0.76556623 0 0 0 0
-0.27723107 -0.3255299 -0.054770198 0 0 0 0
-0.64210254 -0.05658298 -0.33676872 0 0 0 0
0.53987277 0.80246472 0.074889824 0 0 0 0
0.31301478 -0.16006759 0.52603018 0 0 0 0
-0.18661022 0.90330863 0.1632442 0 0 0 0
-0.49683705 0.39118931 -0.67021936 0 0 0 0
-0.80011529 0.044283766 -0.26294908 0 0 0 0
-1.135717 -0.033892199 -0.42443639 0 0 0 0
0.7309041 0.088392057 -0.41160756 0 0 0 0
-0.56764668 0.76306802 0.11616741 0 0 0 0
0.76991034 -0.023141338 -0.21613595 0 0 0 0
-0.62700647 0.0012458027 0.3666718 0 0 0 0
-0.523561 0.83539391 -0.25123277 0 0 0 0
0.35379231 0.69768369 0.65308005 0 0 0 0
-0.15404394 0.08767996 0.73942959 0 0 0 0
-0.3637034 0.93749303 -0.060204133 0 0 0 0
-0.18639207 -0.18911727 0.62085074 0 0 0 0
-0.42191988 0.89495146 0.07930804 0 0 0 0
0.29263523 -0.2283982 0.37864462 0 0 0 0
0.2229639 -0.25341746 0.49142721 0 0 0 0
0.33645982 0.17724681 -0.69538444 0 0 0 0
1.1130086 0.023166591 -0.50200528 0 0 0 0
-0.72253937 0.6407699 0.041206192 0 0 0 0
-0.72144699 0.20190066 -0.45221373 0 0 0 0
-0.49391028 -0.14341645 -0.26262224 0 0 0 0
1.2500519 0.31187186 -0.40627933 0 0 0 0
-0.83817428 -0.050779678 -0.17330235 0 0 0 0
0.23339856 -0.82148612 0.38192147 0 0 0 0
0.75838703 0.58765721 -0.33092234 0 0 0 0
-1.3390387 0.23639213 -0.45871854 0 0 0 0
0.82180822 0.1979751 0.48544627 0 0 0 0
-0.57397664 -0.10435653 -0.25338325 0 0 0 0
-0.29714355 -0.6076569 0.61723191 0 0 0 0
-1.0436637 0.32906049 -0.41521069 0 0 0 0
0.20046541 0.88745111 -0.45881066 0 0 0 0
0.31201237 0.057708263 0.72865111 0 0 0 0
-0.41999492 -0.12156886 0.38706574 0 0 0 0
-0.51617932 0.29453564 -0.6322419 0 0 0 0
-0.16904628 -0.89372188 0.65895611 0 0 0 0
0.11619288 -0.29053843 -0.43723628 0 0 0 0
0.011213456 -0.0027898629 0.73730057 0 0 0 0
-0.21983822 0.6456582 0.82677454 0 0 0 0
-0.60605055 0.41980913 0.72197604 0 0 0 0
-0.030240545 -0.97770327 0.51355261 0 0 0 0
-1.1263955 0.16851515 -0.41643327 0 0 0 0
0.62809837 0.48662332 0.52875543 0 0 0 0
-0.67204618 -0.10157845 -0.15644829 0 0 0 0
0.3267864 -0.73881143 0.59658664 0 0 0 0
-0.20034857 -0.24830493 -0.45691463 0 0 0 0
-0.35157269 -0.25068426 -0.1297366 0 0 0 0
-0.64764971 0.33748677 -0.55274349 0 0 0 0
-1.0053487 -0.0032690421 -0.38249767 0 0 0 0
-0.35235435 0.78988355 0.28976938 0 0 0 0
-0.063171923 -0.44058236 0.74968469 0 0 0 0
0.39997146 0.045854937 0.69782829 0 0 0 0
0.21871018 -0.37509942 0.058635924 0 0 0 0
0.24514353 0.30522826 -0.7635327 0 0 0 0
0.79865497 0.46628377 0.14054503 0 0 0 0
-0.76797676 0.45936537 0.60043979 0 0 0 0
0.068727285 -0.32312721 -0.41095984 0 0 0 0
-0.5544892 0.55073398 0.62354058 0 0 0 0
0.074646689 0.55082023 -0.81975663 0 0 0 0
0.10243618 0.91560429 -0.37761676 0 0 0 0
0.32795137 -0.0099797621 0.69957376 0 0 0 0
-0.4418067 0.5874092 -0.59816635 0 0 0 0
-0.23342775 0.61343199 -0.67278308 0 0 0 0
-0.19785118 0.41053703 0.70941192 0 0 0 0
0.30398422 -0.51920164 0.51814413 0 0 0 0
0.82296526 0.33284 -0.35952976 0 0 0 0
0.80583131 0.13456848 0.087091342 0 0 0 0
-0.65918136 -0.018402934 0.26842105 0 0 0 0
0.62549502 -0.040922239 -0.35749957 0 0 0 0
-1.1904502 0.058706533 -0.39637452 0 0 0 0
-0.016168099 0.97900075 -0.095503137 0 0 0 0
-0.1907253 -0.3988899 0.17689767 0 0 0 0
-0.43893155 -0.10635895 -0.38162705 0 0 0 0
-0.44542128 0.51705056 -0.64964873 0 0 0 0
1.2309613 0.23112479 -0.44871935 0 0 0 0
-1.0158558 -0.0051780813 -0.47813341 0 0 0 0
-0.015785333 0.44213161 0.73789531 0 0 0 0
-0.65109628 0.45695025 0.41367981 0 0 0 0
-0.68464762 0.21802384 0.62234682 0 0 0 0
-0.23431441 0.46849439 0.63632375 0 0 0 0
0.28702486 -0.31868958 -0.15186924 0 0 0 0
-0.41778985 0.6590448 0.35626313 0 0 0 0
0.69052279 -0.03564883 0.17019843 0 0 0 0
0.37467042 0.4695912 0.67131674 0 0 0 0
-0.66507387 0.084778018 -0.44846258 0 0 0 0
1.3235743 0.1541283 -0.52345639 0 0 0 0
0.74927837 0.27675009 -0.46016306 0 0 0 0
0.70120066 0.1933054 0.61205155 0 0 0 0
-0.68872446 -0.056853209 -0.044098798 0 0 0 0
-0.49152556 0.87586045 -0.015747599 0 0 0 0
-0.46384296 0.76241225 0.27783081 0 0 0 0
-1.2724814 0.067565672 -0.52518177 0 0 0 0
0.29157871 0.88113475 0.1989214 0 0 0 0
-0.30619279 0.87741494 -0.43550071 0 0 0 0
0.60418183 -0.094931692 -0.2346375 0 0 0 0
0.21790455 0.42593229 0.6956892 0 0 0 0
-0.60086471 -0.031038569 0.48719049 0 0 0 0
-0.15953036 -0.29447484 0.71663862 0 0 0 0
1.2301245 0.47040588 -0.41236809 0 0 0 0
-0.76165938 0.45252553 0.2372593 0 0 0 0
-0.6812948 0.44936535 -0.4893451 0 0 0 0
-0.7989136 0.14034982 -0.38266346 0 0 0 0
-0.54411727 0.028788393 0.6431067 0 0 0 0
-0.27286372 -0.93807608 0.46554768 0 0 0 0
-0.19360447 0.86775017 0.27208742 0 0 0 0
-0.0027278541 0.19679104 -0.83330446 0 0 0 0
0.086045928 0.36069137 -0.81535387 0 0 0 0
-0.19113831 -0.58366704 0.71256399 0 0 0 0
-0.78375286 0.6135987 -0.054896899 0 0 0 0
1.2983301 0.40300161 -0.4439365 0 0 0 0
0.11012339 0.65879482 -0.70167595 0 0 0 0
0.038982701 0.4352524 0.66141105 0 0 0 0
0.22734869 -0.30182603 0.43980479 0 0 0 0
-0.54979002 0.31242687 -0.61873031 0 0 0 0
-1.2131714 0.10282903 -0.4831818 0 0 0 0
0.03835522 -0.8633514 0.66910273 0 0 0 0
0.063278228 0.96179008 -0.15460128 0 0 0 0
-0.52242392 0.38773179 0.65080541 0 0 0 0
0.90581834 -0.0058208276 -0.28943899 0 0 0 0
0.032597981 0.60752338 0.52563024 0 0 0 0
-0.48826459 0.084978625 -0.5707832 0 0 0 0
0.5089674 -0.10320702 0.21856864 0 0 0 0
-0.024626059 -0.79178512 0.34738502 0 0 0 0
0.30193284 0.88029355 0.1966892 0 0 0 0
-0.030756032 0.69150728 -0.71708661 0 0 0 0
0.96122861 0.42102763 -0.42710152 0 0 0 0
-0.27492645 -0.33130279 -0.12904146 0 0 0 0
-0.47535637 -0.061201192 0.60723251 0 0 0 0
0.22433814 -0.30445227 0.35128844 0 0 0 0
-0.031200282 -0.11373263 -0.70547926 0 0 0 0
0.79517788 0.43942451 -0.35215506 0 0 0 0
0.41149721 0.90912533 -0.19896309 0 0 0 0
1.1345561 0.40918553 -0.37875551 0 0 0 0
0.51175642 -0.15693063 -0.15240009 0 0 0 0
-1.3279911 0.3544811 -0.49654862 0 0 0 0
1.1033176 -0.052862015 -0.43114716 0 0 0 0
0.44030139 -0.020001398 -0.5505771 0 0 0 0
-0.20067652 -0.076511502 0.77191794 0 0 0 0
1.3069276 0.24587139 -0.41875407 0 0 0 0
-0.50137281 0.82338977 -0.38307357 0 0 0 0
-0.47609982 0.86400962 -0.30393231 0 0 0 0
0.010146618 -0.086143725 0.74361926 0 0 0 0
-0.39530832 0.75694907 0.30166826 0 0 0 0
-0.61801004 -0.039094638 0.52395052 0 0 0 0
-0.83803928 0.2409056 -0.0077566439 0 0 0 0
1.144192 0.22003028 -0.4150576 0 0 0 0
-0.36147359 0.91524744 0.027563464 0 0 0 0
0.36286879 -0.20748834 0.18623629 0 0 0 0
-0.66391426 0.38704598 -0.52562743 0 0 0 0
-0.83795691 0.35301656 -0.31156045 0 0 0 0
0.32314953 0.35691324 0.78017837 0 0 0 0
0.20667781 -0.19114015 -0.55100328 0 0 0 0
0.094208457 -0.12819728 0.77060658 0 0 0 0
0.92874748 0.42115042 -0.35881391 0 0 0 0
0.19387855 0.60198921 0.46711189 0 0 0 0
0.20250045 0.95084572 -0.039183792 0 0 0 0
0.81815308 0.18508446 -0.37488526 0 0 0 0
-0.95659852 0.32639405 -0.2858609 0 0 0 0
-0.67233074 -0.081117161 -0.03061964 0 0 0 0
-0.10957345 0.20998558 0.67970079 0 0 0 0
0.0016237797 0.96435159 -0.18614538 0 0 0 0
-0.04498101 0.1950909 0.76163256 0 0 0 0
0.2364102 0.13847618 0.77061856 0 0 0 0
0.78422099 0.15163668 -0.1175122 0 0 0 0
-0.39105999 0.6342873 0.76244783 0 0 0 0
0.16096124 -0.13776596 0.70435244 0 0 0 0
0.089861915 0.21127403 0.76036501 0 0 0 0
0.19584613 -0.54938602 0.71223009 0 0 0 0
0.81498921 0.23100008 -0.13561228 0 0 0 0
0.018141666 -0.31816357 0.75076312 0 0 0 0
0.48191971 -0.028669335 0.63717937 0 0 0 0
0.69610506 0.65749007 0.06062375 0 0 0 0
-0.080751017 -0.75037384 0.69465417 0 0 0 0
0.014354317 0.41640058 0.62042725 0 0 0 0
0.55073249 0.35335129 0.6991474 0 0 0 0
-0.50903809 0.82532406 -0.35149661 0 0 0 0
0.1375964 -0.8292312 0.39062232 0 0 0 0
-0.53005409 -0.13763484 -0.0220208 0 0 0 0
0.56530941 -0.046915032 0.57032949 0 0 0 0
0.21693654 -0.22475851 0.50071555 0 0 0 0
-0.56485301 0.21680829 -0.57432872 0 0 0 0
0.25498948 -0.26964724 0.35009447 0 0 0 0
-0.16787991 0.61961693 0.63549638 0 0 0 0
0.552706 -0.068389922 0.51942128 0 0 0 0
0.36218953 0.13162318 0.78701913 0 0 0 0
-0.15774202 0.57389134 0.82077843 0 0 0 0
0.84030867 0.099743485 -0.32148215 0 0 0 0
-0.50742298 0.20147312 -0.60780281 0 0 0 0
0.77564311 -0.049817529 -0.35415569 0 0 0 0
-0.21583095 0.66593397 0.61362737 0 0 0 0
1.0486583 0.42855215 -0.31164092 0 0 0 0
0.16714661 0.33058792 0.72747606 0 0 0 0
0.38020855 -0.13347284 0.56370282 0 0 0 0
0.16595197 0.93833512 0.026179265 0 0 0 0
-0.49553627 -0.1622005 -0.13864876 0 0 0 0
-0.35815752 -0.10375314 0.6121496 0 0 0 0
-0.35266533 -0.80865294 0.55750245 0 0 0 0
0.60083801 0.65979213 -0.47699606 0 0 0 0
-1.0175407 -0.1010948 -0.3542178 0 0 0 0
-0.48730916 0.099886879 0.69789052 0 0 0 0
-0.66508538 -0.10385569 -0.2648066 0 0 0 0
0.3066386 0.93883103 -0.11551886 0 0 0 0
-1.122856 -0.011075142 -0.50382483 0 0 0 0
-0.54334384 0.10824647 0.61923188 0 0 0 0
-0.38757846 0.43879321 0.70981401 0 0 0 0
0.57213908 0.11610971 0.57358104 0 0 0 0
0.33169547 -0.24831054 0.17309767 0 0 0 0
-0.29114565 0.90106475 0.11476444 0 0 0 0
0.49870628 0.86118472 0.012435261 0 0 0 0
0.79640818 0.60112095 -0.044384148 0 0 0 0
-0.31554881 -0.2827456 -0.28961301 0 0 0 0
0.69534928 0.658319 0.059625104 0 0 0 0
0.37656742 0.55704862 0.43397307 0 0 0 0
0.43205324 0.8853454 0.11217629 0 0 0 0
0.17004685 0.51708543 0.8328445 0 0 0 0
0.19718497 0.082924053 0.72019947 0 0 0 0
0.65671104 -0.045334298 0.1884809 0 0 0 0
0.82715136 0.26670888 0.11061292 0 0 0 0
0.3142747 -0.26609549 -0.3325431 0 0 0 0
-1.2521769 0.23542242 -0.52930939 0 0 0 0
0.45537084 0.85285515 0.22024561 0 0 0 0
-0.63912094 0.65822381 0.095544472 0 0 0 0
-0.19293267 -0.41788486 0.28714538 0 0 0 0
0.57636511 0.19792876 0.61902696 0 0 0 0
-0.63449538 0.46420819 0.43413398 0 0 0 0
0.78453535 0.33112669 -0.39019021 0 0 0 0
-0.49089023 0.4283306 0.71599752 0 0 0 0
-0.29171348 0.88949364 0.16312999 0 0 0 0
0.68851799 0.35532796 -0.50716573 0 0 0 0
0.77516401 0.139935 -0.16537271 0 0 0 0
0.53362548 -0.099145271 0.19562358 0 0 0 0
-0.57727414 0.050349921 0.63788319 0 0 0 0
-0.014133045 0.97456765 -0.044173423 0 0 0 0
0.57835406 0.25045195 0.68306011 0 0 0 0
-0.34253681 0.89596766 -0.30755407 0 0 0 0
0.018958282 -0.78927445 0.34600037 0 0 0 0
-0.45291024 -0.039360698 0.64566672 0 0 0 0
-0.8303805 0.06635341 -0.30529717 0 0 0 0
-0.26347065 -0.36027721 0.50298858 0 0 0 0
0.74327213 0.59616661 -0.35734802 0 0 0 0
0.26607117 0.45263141 0.67766172 0 0 0 0
0.33574265 -0.72365284 0.51233441 0 0 0 0
0.21820657 0.67817354 0.63286054 0 0 0 0
0.35757619 -0.07009276 0.6618067 0 0 0 0
-0.59430319 0.49517503 0.51234227 0 0 0 0
0.27188089 -0.49621889 0.44668555 0 0 0 0
-0.61948544 -0.083546281 0.12039095 0 0 0 0
-0.79886478 0.42016077 -0.32982036 0 0 0 0
0.042375635 -0.41423669 -0.041979995 0 0 0 0
-0.38652769 0.68092364 0.67574584 0 0 0 0
0.10437479 0.58701688 0.74734348 0 0 0 0
1.0319393 -0.057978958 -0.31029621 0 0 0 0
-0.31463486 -0.0012263497 0.63691437 0 0 0 0
-0.38765267 0.60126406 0.39641455 0 0 0 0
-0.59577376 -0.02846838 0.47585166 0 0 0 0
-0.24186313 0.35927373 0.76997882 0 0 0 0
0.8288784 0.11905372 -0.35834461 0 0 0 0
0.21322496 0.51935774 0.80408037 0 0 0 0
-0.06437926 0.57645768 -0.80233592 0 0 0 0
0.54138929 0.66040844 -0.50148571 0 0 0 0
-0.029400481 -0.96206182 0.6079458 0 0 0 0
-0.028037731 -0.47041988 0.26565742 0 0 0 0
0.68099779 0.48706347 -0.47667831 0 0 0 0
0.36762518 0.21383445 0.81753802 0 0 0 0
0.66658634 0.43223864 -0.50784278 0 0 0 0
0.80930042 0.13487667 0.45753366 0 0 0 0
0.39259014 -0.11220204 -0.49036944 0 0 0 0
0.27476326 0.5474695 0.59031719 0 0 0 0
0.075120054 0.7988776 -0.59450614 0 0 0 0
-0.043652348 0.93322641 -0.32489276 0 0 0 0
0.72698516 0.22644882 0.60928959 0 0 0 0
0.69482762 -0.065095887 -0.36462244 0 0 0 0
-0.55578768 0.15206482 0.62541693 0 0 0 0
-0.58127999 0.4096472 0.70536321 0 0 0 0
0.17656475 0.39222652 -0.78887439 0 0 0 0
0.55854756 -0.087926164 0.19521365 0 0 0 0
-0.61202061 0.13112867 0.64199424 0 0 0 0
-0.7492106 0.6394195 -0.047114708 0 0 0 0
0.30267075 0.026528113 0.68148422 0 0 0 0
-0.10160019 0.5466553 -0.80822474 0 0 0 0
-0.79174131 0.50515157 0.14997917 0 0 0 0
-0.82973492 0.2557922 0.1107885 0 0 0 0
-0.3628417 0.49032617 0.75346243 0 0 0 0
0.22235934 -0.23258826 0.56460333 0 0 0 0
-0.80771053 0.16221876 0.14803506 0 0 0 0
0.23842703 0.57698238 0.82027918 0 0 0 0
-1.3154376 0.24312438 -0.52447021 0 0 0 0
0.068726368 0.03013885 -0.7728098 0 0 0 0
0.29974949 -0.58531547 0.61039889 0 0 0 0
-0.30266166 0.60298896 -0.64404106 0 0 0 0
0.10157 -0.36057103 -0.3078801 0 0 0 0
0.65290505 -0.11794174 -0.22737962 0 0 0 0
-1.022316 -0.0017916175 -0.36373258 0 0 0 0
0.15658787 -0.89307785 0.66151559 0 0 0 0
0.81986588 0.19980223 0.48894954 0 0 0 0
-0.31090018 -0.29065236 -0.12352731 0 0 0 0
0.23457709 0.78694147 0.31305331 0 0 0 0
0.96957761 0.29750115 -0.3554402 0 0 0 0
-1.3071809 0.22448902 -0.52866685 0 0 0 0
-0.3962023 0.4886499 0.62215549 0 0 0 0
-1.2680565 0.11068194 -0.4211857 0 0 0 0
0.81192678 0.14829537 0.083892815 0 0 0 0
-1.0717431 0.016750416 -0.42426059 0 0 0 0
-0.69265455 0.59649575 -0.42916089 0 0 0 0
-0.45235792 -0.095340893 0.48176706 0 0 0 0
0.79730988 0.15353772 -0.031608462 0 0 0 0
0.31611469 0.36165327 0.77585477 0 0 0 0
-0.77448678 0.089382112 0.17071317 0 0 0 0
0.75846499 0.045250438 -0.0069623645 0 0 0 0
-0.24640515 -0.78498423 0.38155931 0 0 0 0
-0.020721737 -0.71627688 0.734375 0 0 0 0
-0.81583703 0.2230605 0.18421616 0 0 0 0
0.43647033 0.3967267 0.76151836 0 0 0 0
0.14050423 -0.38274992 -0.049545065 0 0 0 0
-1.0891005 0.10469528 -0.41903311 0 0 0 0
1.0934434 0.29151407 -0.40741307 0 0 0 0
-0.51993263 0.36038813 0.71216726 0 0 0 0
0.67294067 -0.1264596 -0.21283367 0 0 0 0
1.2310669 0.35606474 -0.53309309 0 0 0 0
0.16887315 0.80281681 0.31553975 0 0 0 0
0.17872363 0.41142631 0.69554526 0 0 0 0
-0.70315546 0.65760237 -0.28934738 0 0 0 0
-0.02487261 -0.38858226 -0.25730485 0 0 0 0
-0.3821134 0.56458777 0.57357341 0 0 0 0
0.24438833 0.64241201 -0.64027351 0 0 0 0
0.34205902 0.59904194 -0.63070261 0 0 0 0
0.17399091 0.054438513 0.65805793 0 0 0 0
-0.79762459 0.35584092 -0.32591406 0 0 0 0
-0.064996101 0.25110033 0.76495165 0 0 0 0
-1.0575309 0.25168046 -0.49138078 0 0 0 0
0.57787895 -0.12024733 -0.042478558 0 0 0 0
0.65879482 0.070973232 0.58721524 0 0 0 0
-0.45233443 0.24187297 -0.65263331 0 0 0 0
0.017923353 0.43072987 0.69594967 0 0 0 0
0.81892508 -0.13101321 -0.20170553 0 0 0 0
0.40102312 -0.047604494 -0.56042898 0 0 0 0
0.4556911 -0.06487263 0.61461675 0 0 0 0
0.74543327 0.65855354 -0.15022372 0 0 0 0
-0.78257382 0.355362 0.20446388 0 0 0 0
-0.4925026 0.42232639 -0.67713708 0 0 0 0
-0.34358826 -0.67295784 0.55886018 0 0 0 0
0.088461846 -0.4183726 0.0874338 0 0 0 0
0.28530821 -0.43771049 0.5020932 0 0 0 0
0.42811006 0.21227384 0.7925958 0 0 0 0
-0.51807606 -0.052935109 -0.40732113 0 0 0 0
-0.61959386 0.0024442805 0.43554309 0 0 0 0
0.45699149 0.89140314 0.063353777 0 0 0 0
-0.47305444 -0.13910562 -0.28489074 0 0 0 0
0.67955905 0.47564778 0.55974394 0 0 0 0
0.57075822 -0.035006627 0.34687337 0 0 0 0
-0.15311155 0.90843564 -0.37930763 0 0 0 0
-1.0459882 0.032262973 -0.41392639 0 0 0 0
0.26070794 0.20182189 0.82129943 0 0 0 0
0.27182573 -0.79589355 0.65800112 0 0 0 0
0.11745171 -0.27373403 -0.46516424 0 0 0 0
0.64599222 0.66388744 0.087902181 0 0 0 0
0.070558228 0.50922525 0.58852977 0 0 0 0
-0.14286378 0.12782541 0.74683881 0 0 0 0
-0.07614442 -0.28406766 -0.47309312 0 0 0 0
-0.16439272 0.33498952 0.7211411 0 0 0 0
0.064347707 -0.10476121 -0.69547516 0 0 0 0
-1.2971623 0.080556855 -0.45908013 0 0 0 0
-0.55280685 -0.13041253 -0.04320639 0 0 0 0
-0.35369906 -0.14221296 0.56265312 0 0 0 0
0.094947346 -0.35076448 0.7411418 0 0 0 0
0.42899466 0.39767769 -0.70808434 0 0 0 0
0.013382738 -0.90277743 0.67732227 0 0 0 0
-1.1209012 0.4786458 -0.41740039 0 0 0 0
-0.37450486 0.23888074 0.81786209 0 0 0 0
-1.1751997 0.18026337 -0.50957578 0 0 0 0
0.18724456 -0.37088808 0.71275616 0 0 0 0
0.74379849 0.36902177 0.30815703 0 0 0 0
-0.79833359 0.1341449 0.0023807222 0 0 0 0
-0.085481092 -0.15668759 -0.65495861 0 0 0 0
-0.73590052 0.43958765 0.50606501 0 0 0 0
-0.42877725 0.92050034 -0.13136236 0 0 0 0
-0.2029562 -0.64296806 0.7061857 0 0 0 0
0.25007236 -0.6350652 0.67940277 0 0 0 0
-0.0040637027 -0.72816211 0.734375 0 0 0 0
-0.035865687 -0.57924604 0.33175573 0 0 0 0
-0.14597103 0.56751889 -0.76409978 0 0 0 0
1.2882892 0.4125967 -0.53090632 0 0 0 0
-0.34965384 0.88287377 -0.37363985 0 0 0 0
-0.014786978 0.95836335 -0.20909101 0 0 0 0
0.72105151 0.66179079 -0.049249005 0 0 0 0
-0.031120872 0.57997811 0.54981971 0 0 0 0
0.74033302 0.64797568 -0.19900364 0 0 0 0
-0.44855738 0.53302151 0.4956181 0 0 0 0
-0.21305712 -0.37457785 0.2000726 0 0 0 0
-0.83354974 0.38887036 0.045860019 0 0 0 0
0.32797548 0.6914106 -0.5669812 0 0 0 0
-1.3139994 0.25806224 -0.41921452 0 0 0 0
-1.0854981 -0.065483399 -0.41186178 0 0 0 0
1.1101823 0.012165348 -0.50170177 0 0 0 0
-0.039445817 -0.098731093 -0.71050239 0 0 0 0
-0.73097491 0.24746799 -0.46342155 0 0 0 0
0.51675242 0.50185442 0.39787146 0 0 0 0
0.84081215 0.39050519 0.0053704111 0 0 0 0
-0.80346274 0.45891139 0.12988637 0 0 0 0
-0.83587372 0.4192608 -0.017149117 0 0 0 0
-0.055685941 -0.51239556 0.31771651 0 0 0 0
-0.48974091 0.81977099 0.20168227 0 0 0 0
0.56801677 0.079092048 -0.51444566 0 0 0 0
0.26745808 -0.50830746 0.64059186 0 0 0 0
-0.28388578 -0.5395779 0.62166864 0 0 0 0
-0.3960689 -0.13631725 0.4181022 0 0 0 0
0.93591785 -0.096048497 -0.23795478 0 0 0 0
-0.76030678 0.14960417 0.52467662 0 0 0 0
-0.57006037 -0.11126139 -0.23948358 0 0 0 0
0.045610435 -0.88418269 0.69295406 0 0 0 0
0.5841161 0.70123994 -0.45280135 0 0 0 0
0.042729836 0.43375406 0.60344499 0 0 0 0
0.56234354 0.10705238 -0.52993071 0 0 0 0
-0.25059339 0.70923835 0.67685491 0 0 0 0
-0.23688777 0.92333233 -0.23630545 0 0 0 0
-0.62335551 -0.12697868 -0.16486989 0 0 0 0
-0.16029029 0.67338556 0.70494622 0 0 0 0
0.39690256 -0.20899545 -0.096920036 0 0 0 0
0.04721361 0.72765857 0.41692454 0 0 0 0
0.85382825 0.19767499 -0.26854414 0 0 0 0
1.0177014 0.21699075 -0.48005503 0 0 0 0
-0.23863919 0.29565597 -0.76508749 0 0 0 0
0.15648259 -0.39890298 0.10198359 0 0 0 0
0.23494677 0.073913068 -0.71712583 0 0 0 0
-0.54972661 -0.061855651 0.29155973 0 0 0 0
0.43024239 0.63941824 0.65953416 0 0 0 0
-0.4750064 0.21273288 0.74380898 0 0 0 0
-0.35303271 -0.0068530864 0.69188607 0 0 0 0
0.36229572 0.90120906 0.081939645 0 0 0 0
0.94211948 -0.073973522 -0.42903548 0 0 0 0
-0.28378576 -0.60593486 0.42720047 0 0 0 0
0.49289775 0.37815759 0.72987884 0 0 0 0
-0.029203458 -0.12691307 -0.69864661 0 0 0 0
0.77408737 0.60015386 -0.24143106 0 0 0 0
0.22491476 -0.36606222 0.64568949 0 0 0 0
0.26894942 -0.83278525 0.38686723 0 0 0 0
1.1100076 -0.012948456 -0.50193965 0 0 0 0
1.1454828 0.40445367 -0.51416409 0 0 0 0
0.18967815 0.17622373 0.76661134 0 0 0 0
0.096480824 0.13155137 -0.79793751 0 0 0 0
-0.24740435 0.34518597 -0.76473653 0 0 0 0
-0.58704227 0.63334614 0.20198344 0 0 0 0
0.73616499 0.41629478 0.64241308 0 0 0 0
0.1835026 0.72070509 0.74435097 0 0 0 0
0.15113671 -0.339991 0.72159499 0 0 0 0
0.74358195 0.069454722 -0.14806893 0 0 0 0
0.81052357 0.28417739 0.55563235 0 0 0 0
0.47530493 0.12323304 0.71883816 0 0 0 0
-0.78227669 0.24926238 -0.42501631 0 0 0 0
0.67851329 0.43513554 -0.49661061 0 0 0 0
0.15966164 -0.95184225 0.46386251 0 0 0 0
0.55933666 0.21114135 0.65738422 0 0 0 0
0.84015888 0.044103984 -0.36442822 0 0 0 0
1.0319439 0.28053403 -0.48728436 0 0 0 0
0.26302385 -0.58751839 0.38666597 0 0 0 0
0.59513158 0.077662222 -0.4957813 0 0 0 0
0.34781983 0.66005695 0.58909494 0 0 0 0
0.40713251 0.87234408 -0.38864139 0 0 0 0
-0.11423446 -0.54767364 0.35608864 0 0 0 0
0.15217499 0.91320568 -0.35398069 0 0 0 0
-1.1103928 0.10583747 -0.42943907 0 0 0 0
-0.22032431 0.45976445 0.6436547 0 0 0 0
-0.010928595 0.94451779 0.086025164 0 0 0 0
0.11176874 -0.17808919 0.74941355 0 0 0 0
0.57974774 0.48968807 0.31784108 0 0 0 0
1.1802479 0.34723264 -0.44816941 0 0 0 0
-0.69208199 0.42707437 0.3439014 0 0 0 0
0.049217466 0.10102755 -0.81259048 0 0 0 0
-0.076472551 0.95167476 -0.20003523 0 0 0 0
0.20452592 -0.26660594 0.63110667 0 0 0 0
-0.41425675 0.57618308 0.40659192 0 0 0 0
0.33921751 -0.76099926 0.50627357 0 0 0 0
-1.0081289 0.38970333 -0.47474781 0 0 0 0
0.77957624 0.11317319 0.47662687 0 0 0 0
-0.39358914 -0.099857859 0.60317063 0 0 0 0
0.39361063 0.89432198 -0.28408161 0 0 0 0
0.34132814 -0.84268236 0.47615081 0 0 0 0
-0.94734132 0.4126806 -0.43486366 0 0 0 0
-0.42621976 -0.081241183 -0.47001186 0 0 0 0
-0.19841132 -0.35273984 -0.16099891 0 0 0 0
-0.88616079 0.12121034 -0.32782209 0 0 0 0
0.36273086 -0.8589533 0.53202194 0 0 0 0
0.16511403 -0.095649846 0.78750968 0 0 0 0
0.27208456 -0.43257681 0.62059408 0 0 0 0
0.11884908 -0.45468944 0.28107947 0 0 0 0
-0.4716399 0.72495019 0.29240972 0 0 0 0
0.20244285 0.94688737 -0.13990968 0 0 0 0
-0.16884211 0.53326327 0.53345597 0 0 0 0
0.8554526 0.37556872 -0.33956572 0 0 0 0
0.23726539 0.84678352 0.27668127 0 0 0 0
-1.3584467 0.30985478 -0.47759339 0 0 0 0
-0.19659482 -0.19573767 0.58709735 0 0 0 0
-0.83295667 0.21321745 0.11930219 0 0 0 0
-0.38617763 0.51855928 0.46169734 0 0 0 0
0.72851294 0.12950391 -0.42347607 0 0 0 0
-0.80925518 0.32380822 -0.26009202 0 0 0 0
0.67557204 0.68713289 -0.00097334228 0 0 0 0
0.62184316 -0.10475121 -0.066606216 0 0 0 0
-0.10767715 -0.069201834 0.79551506 0 0 0 0
-0.15109004 -0.12255868 -0.64465332 0 0 0 0
-0.13156193 -0.35453892 -0.29076982 0 0 0 0
0.59030467 0.47577614 0.38694412 0 0 0 0
-0.23642777 0.76149714 0.32797137 0 0 0 0
-0.21806617 -0.6241343 0.70163834 0 0 0 0
-1.3099138 0.068619311 -0.53164756 0 0 0 0
0.34408158 -0.2620382 -0.17250401 0 0 0 0
-0.14839844 0.64828253 0.44527146 0 0 0 0
0.14834733 0.11744452 -0.76959479 0 0 0 0
-0.01400725 -0.65773928 0.3318564 0 0 0 0
0.47489953 -0.10435505 -0.34114352 0 0 0 0
-0.76420528 0.35455805 0.39340952 0 0 0 0
0.12522084 0.58581275 0.69930071 0 0 0 0
0.58261907 0.54595816 0.64272857 0 0 0 0
-0.1561465 -0.45456144 0.72689492 0 0 0 0
-0.32144678 0.35207468 0.79439217 0 0 0 0
-0.77493423 0.12166182 -0.08458481 0 0 0 0
-0.26689005 0.10388403 0.75487816 0 0 0 0
0.35966268 0.85896868 0.24701114 0 0 0 0
-0.81215966 0.53188288 -0.043738458 0 0 0 0
-0.11142031 0.79211956 0.33648747 0 0 0 0
-0.11563142 -0.30575126 0.73259521 0 0 0 0
-0.58198643 0.4808839 0.41647932 0 0 0 0
-0.72769481 0.040131047 0.24045438 0 0 0 0
-0.0054813731 -0.4122856 -0.13619904 0 0 0 0
0.4619998 -0.10081939 0.34496215 0 0 0 0
0.80805981 0.44125116 0.58148688 0 0 0 0
-0.64478743 0.039419204 0.40648416 0 0 0 0
0.82719505 0.30834341 -0.16339763 0 0 0 0
0.8912732 0.18793494 -0.3297728 0 0 0 0
-0.52547675 0.5232653 -0.6109342 0 0 0 0
0.54465896 0.81788307 -0.25175792 0 0 0 0
0.85291451 0.30334014 -0.00016388336 0 0 0 0
0.73791826 0.099237032 0.42079246 0 0 0 0
0.76930839 0.082331955 0.18562588 0 0 0 0
-0.074132599 0.77214122 -0.61931622 0 0 0 0
0.32189375 0.87300813 0.21658584 0 0 0 0
0.7756995 0.32008412 0.4075416 0 0 0 0
0.76601785 0.059324447 0.00077967235 0 0 0 0
0.21500765 -0.37489465 0.049053121 0 0 0 0
0.38914746 0.036593534 0.71279967 0 0 0 0
-0.0056437193 -0.46122146 0.74893939 0 0 0 0
0.2543734 0.027597556 0.65531981 0 0 0 0
0.31643108 0.33064497 -0.74270666 0 0 0 0
0.11930561 0.27228636 0.7634185 0 0 0 0
-1.1210854 0.46121144 -0.48131993 0 0 0 0
-0.31838113 -0.28231645 -0.1251235 0 0 0 0
0.81323963 0.29851568 0.46105593 0 0 0 0
-0.038895924 -0.68926716 0.3399871 0 0 0 0
-0.57613641 0.74920028 -0.4059535 0 0 0 0
-1.240942 0.186572 -0.40682939 0 0 0 0
-0.48997486 -0.055369332 0.60561103 0 0 0 0
-0.47899443 -0.10993473 0.24072559 0 0 0 0
0.85921299 0.34124643 -0.3819913 0 0 0 0
0.091830961 0.67362583 -0.6986146 0 0 0 0
0.67406076 0.43361735 0.71625733 0 0 0 0
-0.8097164 0.36954665 -0.26506388 0 0 0 0
-0.12195266 -0.19307314 0.73837882 0 0 0 0
0.12541549 0.35430324 0.78675681 0 0 0 0
-0.5195272 0.31023204 0.69216651 0 0 0 0
-0.18140607 0.50114399 0.8184247 0 0 0 0
-0.32077536 0.52465439 0.77037466 0 0 0 0
0.087315045 -0.086089827 -0.69587004 0 0 0 0
-0.44897103 0.30012757 0.76181102 0 0 0 0
-0.58553344 0.25178128 -0.57506835 0 0 0 0
-0.39346707 0.42499954 0.7465387 0 0 0 0
-0.34832266 0.28357077 0.82115138 0 0 0 0
0.1043962 0.28145459 -0.80590832 0 0 0 0
0.025283437 -0.42433921 -0.0096860742 0 0 0 0
-0.21697074 -0.90729094 0.41385564 0 0 0 0
0.14167738 -0.2552917 0.72008812 0 0 0 0
-0.33347055 0.8250019 0.27216309 0 0 0 0
0.46516544 0.32061884 0.74042219 0 0 0 0
-0.10312099 0.4308458 -0.81341624 0 0 0 0
-0.14373657 0.20442449 -0.79007947 0 0 0 0
0.76766026 0.33959508 0.39681643 0 0 0 0
-0.33253255 0.42310804 0.73642439 0 0 0 0
-1.1299387 0.04088217 -0.50432926 0 0 0 0
0.39000154 0.0042951028 0.63087457 0 0 0 0
0.30157119 0.4856219 0.64144742 0 0 0 0
-0.51868564 0.86272645 -0.13468109 0 0 0 0
0.078958258 0.81151807 -0.58086151 0 0 0 0
0.09583842 0.78264427 0.35072109 0 0 0 0
0.23980263 -0.36270365 0.058944009 0 0 0 0
0.033253402 0.38771588 0.81741244 0 0 0 0
1.180301 0.34888637 -0.45487088 0 0 0 0
0.19956611 0.43804178 0.76845729 0 0 0 0
0.88192993 0.30341583 -0.39618772 0 0 0 0
0.44538945 -0.10538052 -0.36683303 0 0 0 0
-0.16767825 -0.50722337 0.72260392 0 0 0 0
-1.1882316 0.4964729 -0.41776228 0 0 0 0
-1.2611116 0.097861461 -0.52317804 0 0 0 0
